# .PCD v0.7 - Point Cloud Data file format
VERSION 0.7
FIELDS x y z
SIZE 4 4 4
TYPE F F F
COUNT 1 1 1
WIDTH 1594
HEIGHT 1
VIEWPOINT 0 0 0 1 0 0 0
POINTS 1594
DATA ascii
-74.664368 59.274605 39.012451
-74.338455 59.66082 29.994446
-72.779747 61.508308 23.463745
-71.583015 62.926598 4.2155151
-74.844574 59.060722 8.7292786
-73.074806 61.158577 24.859375
-74.174927 59.854576 22.568787
-74.708885 59.221764 31.952698
-73.17067 61.044731 1.5256958
-74.787247 59.129066 49.995361
-74.66584 59.272865 39.45697
-72.415298 61.940193 14.935913
-71.682693 62.808479 8.3122559
-73.536736 60.611031 22.818298
-73.787537 60.313637 11.019989
-72.086914 62.329277 -0.47186279
-76.490562 56.819084 24.006775
-77.611267 55.269859 16.060242
-75.498878 58.190147 14.200806
-75.114937 58.720833 23.950378
-76.711258 56.513954 27.867798
-75.616852 58.027199 2.8059082
-75.85022 57.70414 39.69519
-76.407867 56.933556 11.771393
-75.244156 58.542091 33.128235
-76.436874 56.893501 8.046936
-75.671524 57.951164 42.542053
-76.232697 57.175514 28.934937
-75.972641 57.535271 9.3141479
-77.365768 55.609352 7.7105103
-77.911407 54.855095 3.2502441
-77.211662 55.822227 21.793091
-93.540848 18.358406 0.52838135
-91.299911 27.099358 -2.0850525
-92.607605 22.073624 1.7740784
-93.148689 19.954201 2.520813
-92.813873 21.403336 4.5523376
-92.588074 22.320221 4.7055664
-91.817337 25.217743 1.4081421
-92.523262 23.011452 13.88385
-92.829071 21.660454 10.437805
-92.643738 22.302605 8.4682007
-91.336815 27.277473 9.3836365
-92.076553 24.68071 15.463257
-92.175308 24.297218 13.219788
-92.071175 24.681046 13.880249
-91.20742 27.727974 8.0104675
-91.137321 27.979561 14.995178
-90.758476 29.175079 12.006348
-90.385681 30.327087 15.631042
-90.92099 28.645836 17.692566
-90.841324 28.884583 20.470032
-91.088768 28.122169 17.464905
-90.571045 29.793053 -0.06842041
-90.516335 29.955193 0.011291504
-90.345253 30.463158 3.8192749
-89.201134 33.517357 3.4243469
-89.92482 31.685593 9.1290588
-89.694847 32.273148 -0.37200928
-88.125542 36.219093 24.183105
-89.666222 32.344406 1.0844727
-89.431282 32.921623 23.817627
-89.406174 32.999306 3.7191467
-89.556007 32.617653 8.2848816
-89.564857 32.59388 10.286926
-88.948288 34.143425 21.034546
-88.603493 35.025063 5.756958
-89.545464 32.651527 -1.9193115
-89.288948 33.281776 22.869812
-89.475723 32.811638 20.649536
-89.939598 31.641708 18.374695
-89.55114 32.627739 11.381622
-86.750336 39.346336 6.2372742
-87.925522 36.572716 -0.21142578
-86.908943 39.063866 15.327759
-86.622734 39.705757 13.255005
-85.987335 41.091423 4.3838501
-86.408691 40.09951 2.3465881
-86.761742 39.324959 6.7763977
-87.460861 37.761787 12.359253
-86.912125 39.005745 9.8251648
-87.245934 38.399788 27.714966
-87.432716 37.862617 16.243164
-87.656387 37.361916 17.964722
-87.913925 36.640282 4.2105713
-86.357132 40.294746 10.606995
-86.996033 38.934135 23.070496
-87.017677 38.803352 14.309509
-84.342216 44.364906 40.461731
-85.313385 42.522285 9.7542419
-85.273148 42.503807 33.702087
-85.338646 42.420677 21.793213
-84.529343 44.024849 30.963928
-85.717117 41.721809 5.2288208
-84.75618 43.643791 11.998535
-84.64418 43.846367 17.911194
-85.025574 43.070549 18.331909
-86.688133 39.654793 28.249207
-86.851257 39.319481 29.264709
-85.474762 42.171272 15.370056
-85.873299 41.366722 14.340759
-85.014069 43.12394 11.147827
-84.91687 43.295662 17.257507
-85.944138 41.156105 30.321228
-83.629158 45.798622 32.132568
-84.154182 44.788094 -1.2735291
-83.920746 45.234184 6.0055237
-83.840103 45.389275 10.834991
-84.225067 44.653572 -1.3056335
-84.05278 44.981865 1.8562012
-83.338692 46.326683 15.121765
-83.361298 46.285774 -0.3302002
-83.406464 46.204109 21.466064
-82.585121 47.576164 33.891907
-81.726959 48.981331 23.275452
-82.216721 48.179512 18.983398
-82.094551 48.379448 26.811768
-81.690285 49.041542 6.5293274
-81.124893 49.967278 1.3203125
-81.742683 48.955788 3.6371765
-82.982651 46.925575 10.907074
-82.710655 47.370995 2.4983826
-82.074547 48.412437 4.0871582
-82.999062 46.898827 -0.99935913
-81.573936 49.232063 4.6477051
-83.209114 46.554771 13.434265
-81.249298 49.763527 7.9053345
-81.151192 49.926323 33.063538
-80.126205 51.607643 42.616943
-81.825592 48.82 26.144592
-80.017532 51.786339 46.853027
-81.149818 49.928825 35.000366
-79.731079 52.256081 48.53894
-81.773521 48.905312 25.843811
-79.717163 52.274498 15.499634
-81.503601 49.347816 26.56842
-80.632866 50.775246 28.119507
-80.703918 50.657967 21.943115
-81.255859 49.756371 45.049377
-80.977974 50.211128 39.658691
-80.494591 51.001091 22.03186
-79.399597 52.792778 -1.2357178
-81.043854 50.099846 14.933655
-81.052444 50.086617 21.254211
-81.746887 48.949089 26.843201
-80.071815 51.693672 19.236572
-80.204216 51.480156 45.461853
-78.844337 53.560234 44.515076
-77.926552 54.833656 17.347839
-76.999878 56.114586 30.610046
-77.92395 54.836571 23.094543
-78.414627 54.155678 38.353638
-78.061928 54.642708 47.599182
-79.331512 52.890114 9.784668
-78.837021 53.57151 34.716492
-78.805405 53.613701 47.931946
-78.033371 54.683052 40.683716
-78.565598 53.948662 22.059875
-76.443771 56.882805 42.670471
-77.295853 55.703377 43.964661
-79.209999 53.059181 2.1551819
-75.772163 57.811378 50.356995
-77.835167 54.957466 39.800659
-78.656357 53.820045 47.410889
-76.668755 56.572548 33.10022
-78.023102 54.696419 47.738647
69.675911 65.075829 13.688232
72.106575 62.25425 31.121643
70.586525 64.018257 20.303894
70.333595 64.356606 10.906219
70.06916 64.653099 10.786133
74.173729 59.809547 51.522888
69.624672 64.989525 26.50946
69.043709 65.652534 23.186584
68.717018 65.99337 24.127563
69.124016 65.575996 22.316772
70.563591 64.01635 23.240723
73.756371 60.310158 46.996826
71.869987 62.46859 35.709778
71.994087 62.333443 35.850342
69.604759 65.086632 61.139709
69.955391 64.657753 55.123718
67.564674 67.259468 22.881104
69.076622 65.651939 51.869568
68.911919 65.860893 56.401123
72.882103 61.283653 51.648499
69.502388 65.185768 56.973572
70.625008 63.829262 41.49176
72.372337 61.880638 54.364319
69.843941 64.788231 55.708679
68.194176 66.609337 39.305603
68.253242 66.504936 30.993958
68.811531 65.956459 51.942688
70.362312 64.181999 53.136169
69.346153 65.286568 39.137695
71.997719 62.323387 57.27655
69.123741 65.54084 38.919983
68.09388 66.686409 30.66687
68.514534 66.233315 37.403809
68.408287 66.332069 32.143066
66.174538 68.584389 40.84613
65.843544 68.929268 27.881287
65.698433 69.055565 34.322266
64.863411 69.863716 31.782654
64.829262 69.896584 31.763184
66.713158 68.070351 38.961731
65.715157 69.046013 31.150879
65.499672 69.261986 26.882019
67.777138 67.020332 52.094543
64.811974 69.911964 57.27832
65.328957 69.406654 39.549683
65.832451 68.914528 41.847473
65.610344 69.131615 57.001587
65.310112 69.425056 66.146484
65.450722 69.287636 43.288879
65.43737 69.300697 57.237976
66.238411 68.517738 59.958984
64.929146 69.797417 53.942383
64.991127 69.736855 44.118408
66.583168 68.180763 49.981384
64.690392 70.030785 36.659729
80.681831 50.61718 45.681091
79.554634 52.463387 47.209534
79.313637 52.855476 47.214355
81.721306 48.845512 35.853943
82.08329 48.239235 33.731384
79.909035 51.875191 45.78717
79.191216 52.932518 32.34552
80.63369 50.614113 35.772278
78.437218 54.051369 19.233032
80.473885 50.962013 46.479187
77.814751 54.970207 7.8173523
79.711861 52.150032 40.19635
79.962395 51.706703 35.844238
77.451073 55.547829 6.1183777
80.685722 50.482445 30.048523
77.941353 54.853783 18.719849
80.577538 50.66935 31.377014
82.561745 47.535439 42.807861
79.084496 53.01844 21.671326
79.005791 53.118706 18.291626
79.355537 52.773109 45.483948
76.691353 56.579445 44.198303
75.615623 58.053917 46.878052
76.910301 56.291786 37.43988
77.590416 55.342278 44.383057
77.57148 55.362679 47.221741
76.213112 57.249641 38.058289
76.577309 56.771492 26.610535
75.525642 58.166908 52.281311
76.594948 56.70472 47.875244
77.483528 55.549217 14.443726
75.438835 58.29702 46.937805
77.860512 55.008018 25.725891
77.257057 55.818382 35.623169
77.611305 55.317497 42.424927
76.034981 57.4916 39.59906
83.741753 45.589714 4.1690063
84.596306 43.953163 1.3295288
84.524208 44.091209 7.5354004
83.859856 45.363533 14.283325
83.714958 45.641014 15.574341
82.973091 46.870277 28.104187
83.575371 45.881813 6.1747742
82.326973 47.930702 5.0436096
82.671089 47.365929 9.8999329
83.655617 45.750114 9.5931702
82.883141 47.017921 13.676636
81.306709 49.495003 19.40918
82.992744 46.813805 33.935669
78.689247 53.598549 9.721283
79.793327 51.870171 13.251343
83.087273 46.675285 32.166504
83.058617 46.715141 33.170105
77.854866 54.909798 5.9474792
80.8377 50.229378 17.868652
82.103539 48.274071 16.164795
77.715904 55.137917 3.190033
79.354317 52.564003 10.405853
80.553032 50.730919 4.738678
77.950676 54.793007 -1.0081482
80.90403 50.195045 2.884491
83.059639 46.707054 34.586792
80.927208 50.178474 -1.3456726
79.40847 52.480934 10.206543
81.214592 49.616646 24.044373
78.02076 54.646095 7.3588257
76.159615 57.345818 19.045349
75.351189 58.41552 31.823364
75.607826 58.075951 11.282074
75.635475 58.039345 1.867157
75.62104 58.058449 35.864807
76.441689 56.972588 9.2150879
75.712105 57.93795 18.30426
76.273689 57.194908 22.963867
75.263588 58.53141 27.200378
75.745262 57.894081 15.217834
76.362938 57.07682 9.3919067
74.800987 59.110039 37.603699
73.141579 61.077843 6.174408
74.765663 59.151939 17.910461
74.633904 59.308174 34.044861
71.500526 63.023857 3.0007324
74.63308 59.309166 14.517517
73.533134 60.613518 -0.79669189
73.014046 61.229088 13.950806
74.050957 59.999458 22.621094
72.310585 62.063271 12.809509
74.834953 59.069771 53.229553
74.595879 59.353264 6.1257324
74.386482 59.601585 31.319397
74.228294 59.789162 44.752991
70.881126 63.758369 -0.75445557
74.11039 59.928993 39.693115
74.545525 59.413002 1.2728882
71.384712 63.161201 2.8554382
72.087807 62.327446 4.9045715
73.570839 60.56176 39.791687
71.88485 62.566658 15.80835
72.743111 61.541405 29.856323
72.559746 61.767418 24.087219
93.273674 19.553352 4.1588745
93.454399 18.741951 0.56741333
92.050163 24.583504 4.8288879
92.361168 23.422188 -0.2638855
91.807106 25.569328 17.556335
91.416313 26.963036 13.742004
91.110619 27.930092 17.052734
90.659248 29.405067 19.537048
92.079903 24.667473 16.591125
91.768669 25.822586 7.8159485
92.105598 24.478516 7.9458008
91.883446 25.319664 6.9002686
93.518456 18.572578 4.336853
85.68084 41.773323 15.365417
85.302681 42.567329 6.5364075
85.267464 42.584023 21.447937
84.526329 44.049843 28.945862
85.366539 42.44976 3.4905396
86.668068 39.718285 33.522766
84.421013 44.240349 34.903015
85.000267 43.108665 25.199829
84.654503 43.791008 29.115906
85.363899 42.392372 20.717285
85.409584 42.325584 13.7854
85.545174 42.01371 24.415527
85.698448 41.701286 25.417419
84.402473 44.313622 25.027344
87.275566 38.161415 24.233582
87.383064 37.775734 15.78595
87.412514 37.711983 16.397766
86.8442 39.213295 23.526367
87.135124 38.343742 12.823608
87.028648 38.760765 23.636719
88.12043 36.088417 24.731567
87.935204 36.564354 26.121216
88.230293 35.714333 17.496765
88.15464 36.092384 30.888306
87.709251 37.005806 18.098694
86.590431 39.622475 8.4713135
85.932152 41.203331 5.6885071
86.952995 39.014961 28.380249
89.519676 32.627769 23.637817
86.56617 39.80468 17.021912
87.306709 37.862602 -0.25241089
89.323463 33.077644 3.4144287
89.337776 33.043663 0.70889282
88.238136 35.652687 14.459595
87.937767 36.365334 7.9661255
87.686424 36.961678 4.0778198
89.282219 33.175468 20.314636
88.885887 34.115837 7.0666504
89.34655 33.02285 14.643127
87.596474 37.175117 7.8897095
89.742195 32.084145 16.327454
88.59391 34.808556 0.28570557
88.621742 34.742546 11.955627
88.978889 33.895164 5.3042603
90.62896 29.530022 6.9950256
91.052116 28.204895 5.5306702
90.628273 29.532204 8.9438477
91.026497 28.285118 11.467285
90.561531 29.74118 -1.0799561
90.410683 30.213593 19.794434
91.7127 26.057724 1.5223083
63.873207 70.768394 35.520996
63.71862 70.901085 54.194946
62.8433 71.652428 57.595337
62.866158 71.632805 43.669189
64.275276 70.423271 64.851929
62.634315 71.831825 39.077209
64.023582 70.63932 46.223755
60.609688 73.569679 43.024719
63.334373 71.230904 44.635498
63.633492 70.974159 34.549011
62.856453 71.641151 45.309326
62.395149 72.033913 55.236877
61.371346 72.869209 52.258911
59.172676 74.630104 48.686523
61.029961 73.130745 52.722717
58.987297 74.869316 40.610596
58.673744 75.081322 43.452148
58.389229 75.301964 43.608765
56.994133 76.38929 43.913696
60.770866 73.301765 68.441772
59.117729 74.635307 53.233948
57.228981 76.218117 70.66571
62.194725 72.130836 68.396423
59.411964 74.418159 67.815552
57.427116 76.027489 54.393494
58.002144 75.585594 72.584473
62.097359 72.211037 68.487793
58.420799 75.231773 66.977539
56.472816 76.800102 47.263489
58.090141 75.494789 61.750122
57.778313 75.751976 62.186218
58.366646 75.256142 55.128174
60.954079 73.148811 67.092834
57.646324 75.841057 50.767944
54.987587 77.852898 59.596985
54.799965 77.991432 48.731873
54.476036 78.216606 46.503174
53.33065 78.999809 53.877441
54.519981 78.183006 50.39093
56.134636 77.057945 64.704956
55.214668 77.695625 60.485168
52.707634 79.43087 53.955444
52.708138 79.430519 61.661011
53.280556 79.033211 58.019226
52.78614 79.376381 65.945496
52.061195 79.879539 74.775024
53.929955 78.582512 63.813538
52.306541 79.709251 61.304688
53.955482 78.564781 60.741516
51.817238 80.033302 55.138062
50.984474 80.534721 62.965881
51.185478 80.413704 62.197388
48.260735 82.174736 61.679871
51.583946 80.173775 70.465942
50.812187 80.638466 50.765076
51.269432 80.363152 64.626648
48.91433 81.781197 55.877319
48.512199 82.023338 59.105347
47.480339 82.58535 69.117615
46.581932 83.098061 70.34552
45.979103 83.439079 71.715942
46.239738 83.353813 59.841614
45.042183 83.988564 70.314819
49.798454 81.229042 72.004578
48.629753 81.920403 69.176941
47.89901 82.302071 76.593933
44.4067 84.328499 75.305725
50.206184 80.988121 72.942505
46.599083 83.081718 71.513245
44.204399 84.44059 76.191895
47.202263 82.707863 76.063965
45.174171 83.857841 80.186096
41.952293 85.565971 70.762817
42.573296 85.284203 76.237976
42.62162 85.279518 80.659973
41.72361 85.655342 65.411194
41.952873 85.509315 57.7005
40.121239 86.437157 63.981445
43.418449 84.855888 73.295166
45.031425 84.01844 63.043213
44.788841 84.152031 66.355957
44.500298 84.24958 56.078491
42.969429 85.075874 73.104248
44.662193 84.174721 57.179199
38.774757 87.092598 63.483093
38.499397 87.222069 78.274414
39.189705 86.897514 84.551086
39.02285 86.97596 72.462708
38.364586 87.285439 61.167175
39.170967 86.906334 74.488586
40.119743 86.460274 71.559998
37.140816 87.780861 63.128113
35.362343 88.480141 66.176392
33.957924 89.032356 65.327026
36.156288 88.167976 73.092224
33.74984 89.114174 62.81604
37.189766 87.761604 65.833618
33.365456 89.265312 69.202698
36.825798 87.904716 66.558716
37.281929 87.72538 62.875732
28.705116 90.899681 85.899292
29.907539 90.46653 83.48645
33.907127 89.051689 71.237915
32.973427 89.340691 80.826355
29.239288 90.68589 88.309204
33.56263 89.122185 80.665466
34.171959 88.910164 78.221619
33.5998 89.125526 77.862366
30.771469 90.17971 77.777161
29.950615 90.488731 77.253357
35.660149 88.35218 78.805542
32.487144 89.551338 76.020691
31.441727 90.003441 65.812439
28.075668 91.111839 86.35376
30.223534 90.385689 65.683777
26.841583 91.398125 65.826782
27.558838 91.205147 71.177124
29.355347 90.657722 68.725464
25.651131 91.76696 68.958862
29.13855 90.770134 80.489624
29.606224 90.564125 64.133057
24.441658 92.131783 69.688782
25.785896 91.764427 78.309814
24.42511 92.146339 87.898621
23.55806 92.38839 77.306091
23.818672 92.315636 86.610779
26.507713 91.564934 83.688904
25.394684 91.875664 77.462463
20.72628 92.998924 76.93866
19.805504 93.192558 72.615112
19.886215 93.175591 78.631653
19.809517 93.191719 71.478638
21.533829 92.829109 71.11853
17.984207 93.575569 70.982605
21.175964 92.904366 68.086365
22.142044 92.70121 82.481689
22.797562 92.563347 85.36615
20.687019 92.972176 88.196899
19.500755 93.220543 84.888977
15.160645 94.0821 79.87793
18.456696 93.450905 80.210083
17.641823 93.639275 75.26825
22.023254 92.726143 86.847778
13.373474 94.358009 89.674072
20.21978 93.074242 86.256592
13.610664 94.309059 90.230225
19.719162 93.141167 90.558777
20.200882 93.086449 84.963867
16.348999 93.874809 76.948486
12.03511 94.550453 82.842773
15.738945 94.037453 69.167236
13.693153 94.315742 75.342285
13.928604 94.266335 69.890381
14.122826 94.277428 79.53064
15.078262 94.134727 73.177979
10.233429 94.772636 82.039917
13.368881 94.374184 80.228394
11.493355 94.586601 74.245117
10.731735 94.723061 90.375549
10.617577 94.7351 92.116333
8.9635849 94.90937 79.637207
9.0170288 94.903755 87.470154
7.4141769 95.043556 92.561279
6.264946 95.091057 80.533203
6.082962 95.098579 78.41272
4.5675049 95.161217 92.483215
3.653244 95.199013 91.34436
7.7447433 95.0299 78.741211
4.4275208 95.167 90.525818
6.8147583 95.068336 77.631775
-19.42038 93.330742 103.21686
-16.468163 93.867805 117.46741
-18.369705 93.521919 132.6839
-15.655869 94.015602 129.96173
-15.165245 94.104805 97.14447
-16.506599 93.860817 115.3775
-15.538086 94.037056 147.50897
-17.888351 93.609459 118.7345
-17.352692 93.706947 146.99176
-14.597717 94.208092 125.75793
-18.122543 93.566841 111.69489
-19.569366 93.303688 132.64966
-16.295982 93.899117 107.68951
-18.262878 93.541298 98.300049
-16.197548 93.91703 104.4173
-16.368309 93.885948 104.52997
-19.553505 93.306511 94.912048
-18.882507 93.428566 93.709717
-15.405823 94.061043 100.36786
-18.632011 93.474205 138.26575
-17.794556 93.626518 117.39471
-15.362595 94.068947 124.40485
-18.30407 93.533836 122.15881
-15.110435 94.114815 121.67816
-19.989594 93.227196 111.23199
-17.439896 93.691048 126.58398
-17.61335 93.659492 124.47272
-16.592506 93.845207 124.96149
-18.193108 93.554024 117.46173
-18.823418 93.439323 97.836304
-18.483681 93.501122 98.485413
-17.993073 93.590431 126.4718
-19.499924 93.316277 104.90497
-34.628777 88.809074 138.25684
-31.117905 90.086021 134.8551
-35.364655 88.541389 118.04382
-33.688202 89.151192 140.43713
-31.708096 89.871391 147.98236
-30.929695 90.154503 146.91547
-33.764084 89.123466 93.800842
-34.914219 88.705208 116.85742
-34.817806 88.740288 119.04968
-33.572926 89.193108 139.02673
-34.11903 88.994499 147.17371
-34.135681 88.988365 115.51013
-33.918159 89.067513 130.32141
-35.452396 88.509483 125.58905
-33.667 89.158852 119.1413
-33.3241 89.283516 103.63385
-33.130219 89.354088 124.12604
-30.43969 90.33268 126.13446
-34.911419 88.706215 108.69745
-31.433987 89.971001 113.86017
-33.952499 89.055061 146.6087
-34.225445 88.955696 104.75543
-34.488216 88.86013 106.86121
-33.521389 89.211769 104.30084
-30.517845 90.304268 136.01752
-31.110115 90.088799 109.31323
-30.547134 90.293571 117.19794
-33.369984 89.266853 107.63129
-32.946308 89.420952 111.33722
-32.804283 89.472588 107.24213
-33.301395 89.291756 94.182617
-32.890537 89.441307 141.29907
-31.250648 90.037651 96.814331
-33.879742 89.081474 122.05591
-33.123428 89.356483 94.315186
-34.125931 88.991875 96.332703
-33.755733 89.126534 101.78223
-49.598976 81.416298 127.86066
-49.940384 81.222054 134.56183
-49.493061 81.47657 130.95599
-49.469189 81.490059 97.39209
-48.311893 82.148521 97.691833
-47.629204 82.537041 126.66736
-46.147392 83.380058 95.531494
-49.789997 81.307671 149.43549
-48.939594 81.791466 128.12457
-49.646332 81.38929 108.03412
-47.721619 82.484398 108.1651
-46.288162 83.299919 83.606384
-49.662594 81.380119 137.15314
-47.730633 82.479332 125.41302
-46.264366 83.313652 149.58936
-49.35498 81.555061 103.70325
-49.168873 81.660881 81.813843
-50.01194 81.181282 105.41058
-45.036674 84.012108 125.24225
-47.06023 82.860756 123.9165
-47.798649 82.440575 109.09998
-49.464523 81.492821 134.53278
-45.182407 83.929207 128.85425
-48.789352 81.876915 116.76831
-44.367592 84.392693 87.058899
-45.616577 83.682167 127.9754
-46.142159 83.38311 124.26245
-45.753323 83.604286 99.094971
-46.405998 83.232994 122.57098
-47.377438 82.680183 90.047424
-47.131046 82.820488 134.4491
-45.365124 83.82531 149.6557
-46.230953 83.332542 103.64929
-49.260185 81.609093 139.36755
-47.105717 82.834908 138.11658
-49.831749 81.283806 110.60461
-47.547035 82.583702 95.871582
-48.408504 82.093636 130.80194
-45.590294 83.69706 105.25568
-49.264454 81.606667 141.40845
-58.179462 75.517677 90.77887
-60.406528 73.694725 114.01019
-62.69799 71.818916 90.336121
-62.345436 72.10746 71.385681
-59.504978 74.432747 133.12299
-60.991871 73.215523 93.613647
-60.426323 73.67852 118.63483
-60.1194 73.929741 111.33362
-60.208736 73.856651 124.16486
-59.723358 74.253914 98.03894
-59.541012 74.403206 109.7655
-62.293224 72.150276 98.324768
-61.24139 73.011314 109.91388
-61.32745 72.940956 145.60962
-59.448383 74.479088 138.50391
-60.672943 73.476631 113.25763
-59.424446 74.498665 124.85901
-59.242992 74.647102 91.754639
-59.485458 74.448753 136.14984
-60.283936 73.79496 76.336365
-60.042229 73.992882 100.50085
-62.26123 72.176521 120.41492
-60.828438 73.349449 149.37695
-62.002003 72.388634 84.850403
-58.759991 75.04261 143.31305
-60.486069 73.62957 98.117981
-60.357304 73.735039 123.17236
-62.471886 72.00396 75.935913
-61.001328 73.207771 91.468506
-61.969921 72.414986 120.54047
-61.325294 72.942604 100.11182
-61.327312 72.940941 96.227966
-61.033127 73.18177 98.579224
-62.254208 72.182259 113.36865
-62.346806 72.106514 132.99945
-60.686905 73.465279 139.67908
-62.614803 71.887138 131.63068
-60.399349 73.700584 109.46625
-72.078171 62.320702 131.12207
-71.207619 63.320671 140.93542
-71.544067 62.934074 82.490662
-72.952904 61.316002 148.06439
-73.109833 61.135704 126.22284
-70.311676 64.349632 80.460693
-70.832657 63.751381 144.6283
-70.794174 63.795525 123.75372
-74.092323 60.007057 69.283081
-73.652679 60.512062 76.5849
-73.88472 60.245522 71.462708
-70.763046 63.831215 91.358032
-70.462761 64.176079 72.816895
-70.171387 64.510811 99.032471
-74.083946 60.016701 85.936279
-70.778778 63.813072 63.42926
-71.546227 62.931664 112.31793
-73.025223 61.232735 62.135559
-74.061493 60.042473 74.304871
-72.295807 62.070595 74.020447
-73.958221 60.161217 127.25208
-70.55455 64.070747 123.88348
-71.107452 63.435661 109.5863
-71.416046 63.081093 66.059326
-73.175217 61.060493 74.989624
-72.680283 61.629036 99.057495
-73.567589 60.609962 145.12659
-73.31562 60.899284 110.36969
-72.140312 62.249168 66.35022
-71.081985 63.464912 110.70123
-73.056381 61.196968 75.965027
-72.678314 61.631355 127.84143
-71.43261 63.062248 145.97357
-71.287994 63.22834 134.50226
-72.93692 61.334251 98.303406
-71.414192 63.083244 74.985291
-72.083611 62.314461 128.03693
-72.377602 61.976631 72.583069
-71.801758 62.6381 84.809631
-71.710007 62.743507 98.032349
-72.819244 61.469383 85.085938
-74.18026 59.906075 82.864685
-72.820541 61.467888 79.021484
-73.037643 61.218559 105.30981
-72.758026 61.539742 100.25549
-72.173019 62.211723 116.40448
-71.286499 63.229988 105.8255
-73.054901 61.19883 145.85297
-73.555252 60.624062 119.14526
-71.240021 63.28344 138.24829
-71.790398 62.651192 104.44983
-74.162643 59.926445 137.52466
-70.099098 64.593773 67.230042
-71.767952 62.67701 119.0636
-71.608261 62.860313 65.005188
-74.079422 60.021965 108.81097
-70.911232 63.661034 110.6051
-73.371353 60.835228 92.763611
-72.875084 61.405327 122.19836
-81.815155 48.839851 126.90167
-81.871597 48.747261 92.534973
-80.932236 50.287132 80.341614
-82.722725 47.351875 46.59137
-82.65358 47.465385 119.52881
-81.788475 48.883568 121.995
-80.843689 50.432335 104.27148
-82.035187 48.478981 52.683228
-82.376938 47.918755 54.28656
-82.742355 47.319786 82.486084
-81.41745 49.491661 53.061829
-82.296989 48.049934 107.22552
-82.295357 48.052559 88.127747
-83.173637 46.612724 61.085327
-82.8992 47.062691 101.81476
-81.191185 49.862709 120.0473
-80.692009 50.681023 115.67523
-80.851097 50.42025 128.53699
-83.039917 46.832054 117.19281
-82.365898 47.937004 125.18463
-81.672913 49.072975 100.68005
-82.403778 47.874901 119.09503
-81.226654 49.804497 85.825562
-81.578827 49.227303 144.05182
-80.767464 50.557365 136.03589
-82.943573 46.990013 135.21594
-82.345291 47.970726 92.81665
-82.672249 47.434685 73.491272
-81.812294 48.844566 145.50592
-80.583458 50.858894 79.496521
-81.491676 49.37011 114.36517
-83.223778 46.53051 52.471375
-82.377365 47.918144 101.57001
-82.105629 48.363609 98.825012
-83.113075 46.712059 90.320068
-81.199951 49.848366 127.53223
-82.220146 48.17585 83.889221
-80.064201 51.710152 92.85376
-81.899483 48.701469 66.441162
-80.270882 51.371361 102.52313
-80.928665 50.293098 128.47644
-80.745834 50.592644 50.793518
-81.613136 49.170876 56.671753
-80.075882 51.691017 103.94519
-82.215324 48.183708 62.325439
-82.913666 47.038933 76.854553
-79.646805 52.39431 52.426392
-81.437828 49.45826 55.114441
-82.24559 48.134193 107.55011
-83.043449 46.826103 49.713135
-80.428192 51.11338 54.245361
-81.334442 49.627785 74.532104
-79.62249 52.434181 51.346069
-81.052696 50.089745 118.69025
-80.83773 50.442116 99.867981
-80.942657 50.27018 138.26392
-80.947746 50.261665 55.664001
-80.142258 51.582115 56.700012
-81.692764 49.04052 147.25708
-88.8396 34.414711 63.085815
-87.871162 36.864799 145.93036
-88.416336 35.483788 76.863342
-89.132149 33.678612 89.396667
-90.00312 31.478493 58.18457
-87.957794 36.639793 64.335388
-88.418297 35.478813 76.534668
-89.345413 33.144096 135.45361
-87.981842 36.583855 124.72418
-89.766045 32.080566 107.39587
-88.325623 35.713844 91.701111
-89.2183 33.461174 88.783813
-88.745415 34.658104 136.43329
-88.983376 34.050194 40.884216
-89.259392 33.356438 75.266968
-87.287193 38.330177 42.647644
-89.514305 32.715721 107.02399
-89.579933 32.55172 127.30908
-88.792641 34.530846 32.898499
-89.1119 33.72567 38.076904
-89.574532 32.56588 134.07135
-89.232002 33.422951 42.289917
-88.269852 35.857048 123.24622
-89.274315 33.321632 111.82043
-89.7481 32.124451 89.976013
-88.000549 36.531075 53.385437
-89.800529 31.995422 131.36792
-88.03035 36.461601 126.58813
-87.918793 36.737556 55.979858
-89.123489 33.699699 79.631897
-87.73127 37.211418 64.773621
-88.554474 35.131798 33.228271
-89.426628 32.936378 99.8396
-89.624298 32.43766 100.27832
-88.330917 35.702278 114.50928
-89.390976 33.021019 32.068054
-89.852646 31.857971 55.627502
-89.802605 31.983856 50.819946
-88.97995 34.058174 32.393677
-89.240509 33.400642 31.66571
-89.097221 33.76873 114.75806
-89.577103 32.556786 100.86194
-88.947235 34.143898 72.728638
-87.659721 37.391441 58.227173
-88.917816 34.219536 91.032349
-87.828239 36.970314 110.32526
-89.015907 33.976265 144.85547
-88.0383 36.436104 57.056335
-87.659286 37.390755 35.591309
-88.923286 34.201836 41.260437
-88.216057 35.993507 132.49255
-88.911423 34.231071 32.20636
-89.251251 33.381111 127.89014
-88.27816 35.831367 63.193604
-89.348297 33.131889 72.387512
-88.207748 36.009773 72.608398
-87.629906 37.469429 93.553833
-89.777122 32.05056 81.467285
-89.537445 32.651955 38.506775
-89.50676 32.730919 58.161438
-88.233131 35.947121 90.509033
-87.860741 36.888893 117.96375
-89.835617 31.902603 76.727905
-88.353409 35.643394 87.345825
-88.136719 36.194679 145.27185
-88.063057 36.372185 38.733093
-88.850525 34.391792 122.38904
-88.039017 36.432304 31.868408
-88.129753 36.210472 122.42175
-88.123459 36.223793 89.938416
-89.927185 31.676888 144.60541
-87.717926 37.250313 131.49768
-88.696014 34.781517 120.49103
-88.126335 36.217247 98.841553
-88.70607 34.750069 43.258057
-88.483559 35.312248 52.417725
-89.713638 32.208328 50.626038
-88.712372 34.734215 43.637146
21.874809 92.727013 120.31
18.57946 93.351646 126.9541
18.089348 93.444542 100.33435
20.946495 92.902977 92.269958
20.973831 92.897789 141.1452
21.978172 92.70742 131.32367
16.603325 93.726219 124.24976
12.6175 94.481728 100.2337
15.172363 93.997459 109.29846
13.159882 94.378914 116.52472
15.45195 93.944466 106.33777
20.405167 93.005577 137.75311
20.02343 93.077934 109.17102
18.5028 93.366173 134.7854
20.284874 93.028389 118.31366
14.015739 94.216698 132.52679
18.398491 93.385948 98.793274
19.271172 93.220528 103.67389
18.016151 93.458412 145.3476
21.63398 92.772667 136.3443
18.213203 93.421074 141.38342
19.907448 93.099922 112.40387
20.540276 92.979973 93.129211
21.591957 92.780632 143.93701
21.283142 92.839165 113.06757
12.428192 94.517616 140.85107
12.61264 94.482643 116.30725
14.161751 94.189018 138.62286
21.261055 92.843346 127.78851
13.822533 94.253319 99.346252
19.252945 93.223991 99.754944
14.718964 94.083397 108.0155
21.239365 92.847466 139.75781
21.396309 92.817711 138.0589
19.544777 93.168663 97.944946
19.598221 93.158531 123.17535
17.20105 93.612923 100.04401
17.756844 93.507576 92.523071
18.066978 93.448784 114.40625
13.761749 94.264839 132.23187
17.272392 93.599403 111.46259
18.779503 93.313728 115.14215
21.732071 92.754066 126.47888
17.622284 93.533073 102.17383
20.794228 92.931831 148.41083
12.154541 94.569481 122.36359
19.915184 93.098457 140.56232
14.788498 94.070213 128.28888
13.968628 94.225624 104.23737
12.209694 94.559029 141.21863
22.202606 92.664879 101.68353
17.814041 93.496727 110.1568
17.820427 93.495522 147.58496
22.663445 92.577522 108.80505
23.126373 92.453545 149.32776
22.862 92.521446 134.00793
22.716675 92.548851 139.49976
22.06514 92.685555 144.69012
23.709633 92.345497 124.55621
24.899597 92.013878 120.48157
25.685745 91.794411 147.1076
24.982018 91.990852 105.00635
24.372566 92.161003 113.84033
24.555672 92.109886 109.68762
25.273773 91.909416 105.90009
26.451195 91.580727 141.21277
26.465446 91.576744 107.95844
23.94088 92.281517 102.21454
25.133064 91.948708 129.03259
27.421898 91.309731 125.04352
27.736504 91.221901 139.89404
25.030144 91.977425 148.96936
24.267944 92.190208 95.111328
25.354774 91.886803 102.01862
26.560097 91.550316 103.62457
24.693542 92.071404 112.89996
24.472977 92.132973 144.36096
33.992653 88.922508 112.93671
33.645103 89.051186 97.170898
33.741356 89.015541 100.6355
30.466644 90.227913 116.10809
29.9487 90.41967 113.19342
30.608673 90.175331 99.993835
36.306709 88.065788 99.716675
36.586342 87.962273 129.19373
35.310997 88.434425 128.24695
36.616081 87.951256 104.60602
34.504051 88.733177 120.74457
32.035255 89.647179 139.92761
34.443657 88.755531 110.56042
29.676048 90.520607 106.83795
36.396904 88.032402 138.77887
36.140114 88.12748 88.112
33.302086 89.178169 119.20514
30.537788 90.201576 89.545471
30.224762 90.317467 98.38446
35.478447 88.372444 117.328
30.670021 90.152626 101.60406
34.663124 88.674294 94.81842
32.148148 89.605385 148.4726
32.055984 89.639503 97.286499
33.575752 89.076851 109.82751
32.243881 89.569939 149.47699
28.391678 90.996101 146.61731
35.503883 88.363014 104.15808
33.053886 89.270058 120.49579
29.402313 90.621956 119.4483
30.261917 90.303703 141.60522
29.775932 90.483635 119.05328
33.066185 89.265511 138.08319
28.833351 90.832588 109.66418
30.558266 90.193993 128.35712
29.401794 90.622139 107.4035
30.329231 90.278786 114.43152
32.027756 89.649956 109.09918
31.219627 89.949135 98.444946
35.740868 88.275291 94.348816
35.138771 88.498192 145.32416
31.722641 89.762917 101.09399
28.786804 90.849831 91.819885
35.564339 88.340645 99.092163
34.486 88.739861 99.928589
31.911133 89.693138 90.531433
37.8433 87.496925 94.601013
38.155067 87.344429 133.88312
36.830589 87.871819 140.05981
36.75309 87.895271 149.88916
37.617851 87.572105 118.79047
38.358406 87.273354 120.30383
37.132378 87.759758 128.28619
42.285469 85.442055 123.18457
42.098885 85.529778 110.63593
40.06884 86.484184 100.89417
39.472801 86.764412 108.54926
38.762962 87.098137 107.6676
39.77813 86.620872 123.64227
39.645042 86.683449 95.423279
41.370415 85.872261 131.72003
42.925926 85.140938 128.43011
39.662498 86.67524 115.9104
42.611794 85.288628 95.279114
39.238426 86.874611 112.60211
40.392128 86.332207 126.43292
38.199471 87.36306 87.201599
41.218483 85.943703 148.74243
38.513969 87.215218 103.33392
38.929619 87.019798 137.59332
42.605247 85.29171 102.14752
42.041573 85.556725 137.1731
42.347908 85.412712 85.731506
42.896782 85.154655 126.00549
40.079247 86.479301 106.12048
42.107063 85.525932 110.08563
40.517647 86.273186 147.97046
39.05825 86.959328 132.25366
42.290077 85.439888 106.72247
39.49926 86.751976 129.95428
41.204765 85.950142 148.09064
40.170097 86.436592 129.42188
41.984108 85.583733 90.707825
40.188774 86.427803 111.33447
39.29493 86.848045 100.94403
42.549294 85.318016 138.19867
48.54409 81.910713 114.46686
44.577339 84.191521 127.36261
49.978416 81.086006 123.07062
50.129311 80.999245 83.609253
48.813835 81.755623 107.62122
45.683907 83.555275 84.929932
45.210228 83.827629 139.17792
50.091545 81.020958 110.30127
44.318001 84.34063 98.920288
43.621086 84.741341 133.36255
45.083641 83.900414 125.44208
44.988167 83.955299 142.94092
45.738152 83.524071 90.285034
45.626137 83.588478 147.50952
49.735268 81.225807 93.988464
48.231956 82.090187 123.33606
48.33773 82.029366 139.24329
44.55703 84.203194 93.041199
46.501228 83.08532 141.10303
51.250755 80.354439 92.631714
47.055214 82.766792 140.54529
48.668297 81.839302 140.81091
50.162682 80.980049 127.60126
49.50544 81.357948 131.39642
50.518593 80.775414 130.3092
44.994865 83.951454 132.73566
48.809807 81.757927 148.49799
45.617561 83.593422 133.66461
50.508476 80.781227 118.95886
48.867821 81.724571 148.21368
48.471458 81.952477 123.00433
48.179161 82.120537 101.91693
49.732552 81.227364 115.59796
47.016212 82.789207 105.54614
47.832222 82.320015 118.09564
43.309975 84.920235 87.905151
43.716621 84.686409 138.24799
49.999107 81.074104 86.186768
48.841835 81.73951 84.285583
49.080544 81.602257 81.696472
48.538963 81.913658 128.37317
47.448204 82.540825 122.82129
43.514717 84.802498 140.78961
44.288857 84.357384 94.443359
51.160103 80.406548 110.50842
44.582542 84.18853 121.33807
49.697975 81.247246 81.897339
48.504982 81.933189 148.07056
43.556984 84.778206 116.67426
49.866188 81.150536 102.29547
48.210899 82.102287 90.066956
44.544685 84.210289 85.865906
43.850151 84.609642 100.02673
47.381767 82.579018 101.45618
43.285088 84.934532 107.021
46.96804 82.816902 149.99896
51.96357 79.920082 106.9707
52.019051 79.871834 123.08875
52.593163 79.499718 144.36981
50.569725 80.741188 149.41138
52.020241 79.876945 116.39832
51.457802 80.212196 129.05127
52.209953 79.773018 101.66675
51.30085 80.307625 130.43018
50.990715 80.489113 141.26605
51.805275 80.003166 123.4201
53.545601 78.849266 142.64014
55.704399 77.350929 119.97192
53.157417 79.11869 118.93958
55.896126 77.217873 101.71179
54.687096 78.056999 131.34058
55.258568 77.660362 90.851807
54.644432 78.086601 141.05591
55.924324 77.198296 83.008484
55.27169 77.651253 134.54803
53.416069 78.939186 79.850647
55.95681 77.175728 124.24811
53.171516 79.10891 135.95264
56.123253 77.060219 81.721008
55.71032 77.346825 91.574219
54.069115 78.485924 137.58362
56.478798 76.813438 146.78729
54.348228 78.292198 88.592407
56.637276 76.703453 137.58099
54.719658 78.034401 134.59924
56.128517 77.056572 127.698
53.249718 79.054634 129.94574
52.967583 79.250435 109.74762
55.49456 77.496574 128.53107
55.371422 77.582039 77.981995
52.707176 79.43119 130.8446
56.246254 76.974861 113.01562
53.713478 78.73275 104.18024
56.457985 76.827888 91.151917
53.838524 78.645973 97.900452
56.236031 76.981941 124.61523
56.168602 77.028755 146.5061
53.217049 79.077309 95.829163
56.446007 76.836205 110.62488
54.237984 78.368721 105.97076
53.210503 79.081841 146.91742
54.014122 78.524086 89.617798
52.403618 79.641884 80.325745
54.570229 78.13813 147.88275
54.940437 77.881172 142.7688
55.614922 77.413033 81.328857
53.648888 78.77758 120.65198
59.441368 74.401451 90.522583
57.59893 75.919182 91.675293
59.98774 73.951363 113.90344
61.147682 72.995827 93.032959
57.225945 76.226433 112.31201
63.092201 71.394005 94.018127
61.133125 73.007835 145.57123
61.736687 72.510628 110.41217
59.105675 74.677986 121.82434
57.862038 75.702446 140.6651
60.347801 73.654762 79.06665
63.254189 71.260567 93.154114
60.905525 73.19532 113.48163
60.185219 73.788673 129.90546
57.786842 75.764397 77.096191
62.741844 71.682625 100.72302
63.01989 71.453575 102.0202
59.470467 74.37748 82.26062
59.949409 73.982933 105.21759
60.17289 73.798836 76.972229
61.16642 72.9804 111.85352
60.769768 73.307152 111.12238
62.178841 72.1464 129.31812
60.257484 73.729164 110.0351
62.892906 71.558174 92.541321
58.898537 74.84861 103.77655
63.353615 71.178658 70.164856
63.277229 71.241585 71.987427
63.139076 71.3554 127.54944
58.668373 75.038216 123.71686
60.883995 73.213051 79.929443
60.461571 73.561043 72.701843
59.057106 74.717995 143.90497
60.038429 73.909599 123.29657
61.352913 72.826775 101.49554
59.268852 74.543556 84.107605
60.238548 73.744743 99.019104
60.202248 73.774651 75.588806
59.096474 74.685555 74.507263
56.823555 76.557915 124.81805
63.685799 70.905022 105.72241
64.236824 70.451103 68.609802
60.278236 73.712059 122.66205
61.241676 72.918419 106.40662
58.560387 75.127159 75.697876
62.981071 71.485558 81.801636
58.933952 74.819435 122.5791
63.931084 70.70295 83.585022
63.116173 71.37426 102.11987
62.334251 72.018379 79.785217
60.412971 73.601067 149.88434
58.445259 75.222008 76.695496
63.418022 71.124596 123.41534
64.550728 70.157478 93.723877
63.856636 70.738899 123.10675
63.356453 71.163719 138.46161
63.61956 70.932365 138.24756
63.890114 70.728645 103.95435
64.361244 70.273796 144.03485
64.041252 70.59536 104.21478
64.127876 70.509682 113.63013
64.385857 70.298332 97.977783
64.169197 70.505318 81.699097
64.594322 70.091805 120.94781
66.836311 67.933342 104.50073
66.389824 68.369743 144.31726
65.335701 69.400063 132.38141
68.389763 66.414986 99.918884
65.947578 68.80201 138.4093
68.359505 66.444557 134.53058
67.203728 67.574226 131.99286
67.265312 67.51403 83.672119
66.572578 68.191124 123.73749
66.123375 68.63018 71.088928
67.815346 66.976433 104.92053
68.809532 66.004692 113.21448
68.687309 66.124153 144.80225
64.819527 69.904579 75.70282
65.512108 69.227638 91.572693
66.495628 68.266335 138.6579
65.648842 69.094002 68.872559
67.331429 67.449409 147.73877
67.393654 67.388603 110.60089
68.351662 66.452217 81.067993
67.626411 67.161079 135.36224
67.750862 67.039452 113.87286
66.496986 68.264992 127.44928
68.05732 66.739906 76.662659
66.043556 68.708183 75.385864
64.953438 69.773689 115.66071
68.226784 66.574272 112.44165
65.595131 69.146492 71.229492
67.140572 67.635963 74.683411
68.600975 66.208549 93.768127
66.981453 67.791481 133.46271
66.758858 68.009041 144.9259
66.673302 68.092674 91.334839
64.707924 70.013649 69.728088
65.281593 69.45295 132.86584
65.056236 69.67321 112.37115
65.467918 69.270821 87.771179
68.237907 66.563408 73.573975
68.678169 66.13308 110.64569
67.567436 67.218727 117.5188
65.186653 69.545753 69.807556
67.938667 66.855888 141.36554
70.41375 64.160225 118.36969
74.271278 59.712761 87.701782
73.770592 60.290016 109.03491
73.02459 61.150108 61.408203
71.704735 62.671806 137.49591
71.276466 63.165581 85.072449
70.632729 63.907768 73.272827
71.370628 63.057014 97.994568
69.294991 65.450066 127.90247
72.150703 62.157646 79.225647
71.740547 62.630516 102.72937
72.380745 61.892418 126.41888
69.667015 65.021156 74.94873
72.626045 61.609581 135.10028
73.46154 60.646324 77.053162
74.583 59.353355 59.399841
69.816216 64.849129 93.784485
69.97834 64.662224 104.41766
72.437675 61.826775 108.39044
70.188972 64.41938 147.53162
70.60453 63.940254 135.16895
72.830605 61.373756 83.396057
74.604561 59.328499 63.628357
71.825371 62.532722 99.109375
70.16404 64.448112 88.886536
72.444099 61.819374 149.64032
74.130089 59.875542 101.78571
73.037193 61.135582 74.644348
74.04995 59.967934 107.92572
70.659447 63.876945 104.7099
72.728844 61.491081 133.81024
70.592323 63.954338 145.65228
70.556526 63.995613 101.32227
71.736458 62.635231 119.64862
72.489082 61.767509 116.04944
72.047615 62.276497 69.548706
69.557991 65.146858 98.971375
73.657967 60.419868 112.22638
72.945656 61.241096 114.65588
72.333855 61.946465 133.84283
72.742073 61.475838 136.8457
72.48394 61.77343 74.43457
71.217903 63.233101 64.431396
70.065025 64.562279 120.10052
72.615623 61.621605 65.090088
72.111443 62.202888 133.76202
71.977867 62.356911 72.779846
71.316704 63.119164 65.649658
73.636604 60.444481 103.33801
71.961159 62.376167 80.732178
72.54641 61.701408 130.51062
69.985344 64.654137 64.295471
73.028175 61.145973 111.10687
74.30616 59.672539 107.54736
71.967125 62.369286 118.1825
70.737465 63.78701 64.000305
71.036385 63.442375 126.40479
69.722557 64.95713 97.774841
69.239265 65.51432 119.45776
68.895103 65.91111 124.4787
72.959541 61.225105 139.25488
69.85183 64.808083 69.463745
69.758354 64.91584 69.723999
71.077278 63.39521 88.327454
72.440483 61.82354 119.35193
70.758385 63.762871 63.612854
70.776192 63.742363 120.06256
72.741982 61.475929 98.136902
70.062126 64.56562 93.160095
70.924889 63.570915 80.12677
70.882225 63.620094 97.753845
73.293938 60.839561 115.27283
70.753395 63.768639 121.99335
73.177773 60.973488 92.780334
70.348061 64.235954 137.00708
73.142174 61.014534 105.76971
72.627068 61.608421 60.528503
71.951851 62.386894 87.789062
72.263618 62.027443 81.645569
72.915047 61.276405 94.691284
75.452919 58.255974 105.78918
75.463081 58.221718 123.90253
75.520287 58.127998 143.03711
75.75486 57.835716 144.50891
74.606056 59.304298 106.20251
74.711296 59.163155 115.2326
74.935921 58.944801 65.19696
74.910118 58.975014 66.644958
75.017281 58.762245 133.61511
75.185219 58.553795 133.9715
78.274559 54.387245 81.755493
77.618019 55.28849 101.49341
77.196922 55.86657 78.498779
77.500771 55.449471 129.90948
78.918465 53.503319 61.965637
77.111244 55.984184 102.22717
76.51107 56.808083 139.08484
78.315498 54.331047 77.94989
75.777809 57.814674 55.052368
77.944481 54.84034 112.80078
77.329842 55.684105 69.467468
78.86306 53.579384 70.322937
76.707512 56.538414 86.41626
77.893623 54.910179 117.83539
78.422127 54.184669 77.458008
76.136604 57.322136 112.95947
77.644768 55.251793 99.629578
77.62339 55.28112 104.9621
78.340248 54.297066 123.40173
77.833824 54.992256 88.537781
77.887428 54.918694 146.76489
76.79084 56.424019 112.43445
76.651955 56.614662 146.44189
76.374611 56.995399 99.563416
77.565361 55.360786 125.49817
78.917305 53.504921 131.92328
77.803856 55.033409 106.47028
75.799355 57.785088 82.704346
78.108315 54.61544 64.539429
78.049324 54.696419 124.13367
77.771843 55.077339 125.23993
76.170799 57.275185 133.45654
75.839363 57.730171 135.24744
76.088707 57.387871 102.09277
77.903084 54.897179 120.01221
75.978142 57.53965 137.17841
75.860283 57.701454 62.837341
75.90464 57.640556 55.731689
77.309044 55.712639 126.96039
76.34449 57.036751 82.769775
77.73835 55.123329 104.54858
78.500374 54.077248 58.50824
77.930809 54.859108 104.75287
76.330635 57.055763 112.61652
78.713646 53.784492 143.81647
75.843956 57.723869 91.321045
76.911003 56.259087 95.380066
78.870033 53.569786 103.49115
75.978462 57.539223 112.17322
77.490807 55.463127 103.09094
78.722496 53.772331 94.970154
78.703545 53.798332 56.606018
78.558403 53.997581 124.60242
76.777657 56.442131 113.67426
78.381645 54.240227 89.391235
78.106331 54.618187 80.617676
77.914268 54.881844 69.587891
77.629204 55.273155 89.896973
75.570244 58.099602 59.127197
81.41851 49.421669 114.03308
80.034309 51.693428 74.048828
82.350349 47.892326 68.257874
79.856956 51.98452 97.425903
83.072014 46.707939 57.440002
79.515327 52.545204 58.583923
81.397911 49.455482 142.2326
81.579201 49.157951 73.204163
82.063271 48.363503 124.47083
79.760094 52.143471 107.67828
80.007439 51.737541 132.86938
80.379677 51.12661 96.417358
82.901634 46.987572 76.72522
81.858009 48.700371 127.53259
82.145882 48.227913 51.338562
80.712364 50.580605 141.99597
79.883812 51.940437 59.594971
82.750908 47.234932 73.784424
81.060966 50.008476 131.8045
82.359795 47.876823 114.11102
80.916878 50.244957 114.61304
81.565498 49.180443 54.127075
81.404655 49.44442 52.482727
80.840919 50.369621 93.530762
81.785561 48.819283 104.46002
81.54911 49.207329 79.796814
82.574913 47.523781 97.902344
83.243324 46.426781 45.392334
82.565254 47.539635 100.81464
81.44178 49.383476 82.556885
81.62487 49.082985 148.96722
83.448357 46.090279 46.763611
81.360558 49.516792 103.55151
82.544151 47.574272 117.28094
82.403465 47.805153 84.344299
82.179588 48.172585 105.05231
83.147697 46.583702 71.719116
79.514565 52.546455 133.84192
81.20562 49.771065 121.52057
83.218864 46.466911 60.803284
80.313118 51.235863 55.048462
79.55761 52.475792 94.021851
80.104286 51.57859 108.05005
79.456245 52.642159 98.833435
80.822426 50.399971 84.962463
82.089699 48.320107 62.87616
79.485954 52.593407 131.80389
79.097878 53.230309 126.28802
83.125435 46.620247 52.766174
83.173866 46.540764 51.95929
81.221062 49.74572 134.57385
80.695137 50.608879 70.209106
79.35569 52.807198 108.2757
79.034142 53.334923 102.18921
82.188347 48.158211 128.09045
81.60154 49.121284 87.76886
79.259361 52.965279 53.391357
81.391685 49.465706 83.000122
82.180885 48.170464 114.39636
80.057899 51.654732 140.20374
82.337471 47.913475 46.311523
82.029366 48.419151 134.87384
82.343422 47.903709 55.990356
81.885735 48.654869 149.16412
79.245323 52.988335 54.197388
80.49868 50.931313 137.47931
80.727043 50.556511 149.14905
81.246544 49.703896 68.628113
82.087318 48.324028 46.384277
80.644096 50.69265 99.335815
81.923302 48.593193 63.497498
82.549339 47.565742 141.45636
81.371712 49.498482 117.09161
81.520988 49.253487 115.94
82.154091 48.214424 87.30365
82.99604 46.832619 52.651062
80.399284 51.094444 117.67749
80.469398 50.979362 99.018372
80.937263 50.211494 121.93396
79.720161 52.209007 94.114319
79.620766 52.372139 93.616272
83.48806 46.025108 51.201172
82.452446 47.724785 106.88733
83.282875 46.358223 82.595703
83.077965 46.655739 128.20514
83.098 46.648949 109.05835
83.945808 45.117119 118.42017
83.262459 46.320961 131.18707
83.856209 45.265678 126.20325
83.340446 46.21978 105.89307
84.194115 44.647835 134.71948
83.719444 45.503349 130.88788
83.126945 46.548088 141.36591
83.511742 45.979729 62.065369
83.337212 46.258186 84.438538
83.882835 45.191338 143.7403
84.012016 44.960472 143.50269
86.539085 39.970192 117.75146
84.619392 43.822243 62.974854
85.363441 42.329262 72.134155
85.468864 42.117699 60.977722
85.2183 42.620506 98.214417
86.221123 40.608208 52.645935
86.444283 40.160423 95.737671
85.336555 42.383202 81.721924
84.984413 43.089806 102.90698
85.218987 42.619148 85.848816
85.518715 42.017677 113.27728
84.577507 43.906303 100.63904
84.518806 44.024101 57.875488
84.178093 44.707787 57.669373
86.827644 39.391151 147.4884
86.120171 40.810799 47.991333
86.085014 40.88134 88.277161
84.363579 44.335548 89.657654
84.921242 43.216576 47.920227
86.222816 40.60482 63.124451
84.234322 44.594933 81.44635
86.209068 40.632408 101.57837
85.61895 41.816536 130.49475
86.585701 39.876656 141.75897
84.739647 43.580956 120.92499
85.681679 41.690666 134.38721
84.885994 43.2873 125.84735
85.544579 41.965767 117.94403
86.027336 40.997093 126.7666
85.927925 41.196556 142.18378
84.502357 44.057091 53.309814
84.353783 44.355232 81.69104
86.534065 39.980247 75.982178
84.888924 43.281441 55.335022
85.538887 41.97718 80.287842
83.865639 45.33474 58.162537
84.057426 44.949898 89.988098
84.673714 43.713264 54.529541
86.25103 40.54821 50.24762
85.123253 42.811226 85.381165
84.59481 43.87159 56.091492
85.70269 41.648506 120.26318
86.479591 40.089592 109.91595
86.437752 40.173515 42.573608
84.874245 43.310844 42.347412
85.370323 42.315422 45.051025
86.107338 40.83654 91.59967
86.577797 39.892525 55.187988
84.867485 43.324425 110.1488
85.280052 42.496574 41.730713
84.762672 43.534767 80.738647
86.213768 40.622963 93.607971
85.120735 42.816261 124.23035
84.574211 43.912941 133.94012
85.45414 42.147255 97.233643
86.373055 40.303352 41.855164
85.123756 42.810219 129.84186
85.95565 41.140892 101.33972
85.145302 42.76696 47.086182
84.594337 43.87252 49.800781
85.492516 42.070244 97.73407
86.280678 40.488701 122.01752
84.738853 43.582558 98.411072
84.703148 43.654198 50.309143
86.704781 39.637733 53.893616
85.952644 41.14695 122.57678
85.248314 42.560265 94.106934
85.999199 41.053535 77.408142
84.370171 44.322365 124.3847
84.435143 44.191978 141.28162
89.023598 33.921867 147.24896
87.06797 38.818275 112.07581
87.774193 37.050072 128.90729
