# .PCD v0.7 - Point Cloud Data file format
VERSION 0.7
FIELDS x y z
SIZE 4 4 4
TYPE F F F
COUNT 1 1 1
WIDTH 1529
HEIGHT 1
VIEWPOINT 0 0 0 1 0 0 0
POINTS 1529
DATA ascii
-46.017536 183.74643 53.48877
-45.24762 140.62689 54.217957
-46.038113 152.58908 53.500061
-49.216137 189.45969 50.624878
-44.677391 184.04437 54.686096
-48.718842 178.36487 51.079834
-45.296383 145.06226 54.170166
-45.107464 174.39755 54.310974
-45.248024 141.44598 54.216736
-48.439129 172.35236 51.33551
-45.810547 168.93378 53.687866
-47.545689 171.94073 52.134338
-46.891766 152.28979 52.737549
-47.049412 146.82816 52.601868
-44.918865 166.90079 54.486694
-46.322975 167.30527 53.231445
-45.846905 125.09431 53.697205
-45.562168 150.00388 53.927917
-46.370914 162.24591 53.19342
-46.098057 136.03589 53.462341
-46.918362 152.62567 52.713379
-47.287514 119.66589 52.447083
-46.005104 122.54334 53.560486
-48.573418 166.83676 51.225098
-47.69619 123.79243 52.081665
-46.860462 135.18042 52.78717
-49.697784 187.15512 50.200745
-46.669708 126.47958 52.972046
-49.366669 172.62848 50.520447
-46.783466 108.2286 52.911255
-48.001255 122.25665 51.818604
-46.308834 112.11651 53.317383
-45.902084 121.00809 53.653687
-47.665485 141.93768 52.07019
-47.402279 117.26424 52.352051
-46.56152 120.18313 53.079773
-55.109032 107.58939 44.208679
-54.719582 113.64974 44.670532
-54.749126 173.91092 44.628296
-54.846989 150.12161 44.515442
-54.464256 110.46891 44.972778
-54.506912 141.10239 44.91864
-54.563869 150.28769 44.850159
-54.229855 135.0448 45.246887
-54.527714 147.79883 44.893188
-53.374138 108.68098 46.26178
-54.613888 165.16611 44.789185
-54.899639 183.11447 44.449219
-54.641605 149.41873 44.758362
-55.074116 187.0043 44.242432
-54.986805 152.06412 44.349915
-53.462349 125.99744 46.155396
-52.053173 118.32987 47.702026
-52.182529 130.465 47.524475
-52.916142 152.96371 46.667358
-53.375618 159.27682 46.155701
-52.60574 121.23951 47.101929
-53.448307 154.02155 46.095032
-54.778973 182.8317 44.579102
-53.611343 140.20566 45.965393
-54.646198 179.05746 44.733276
-52.130684 109.64701 47.647278
-50.640308 110.26685 49.238586
-52.863209 123.93497 46.817871
-51.101723 110.08921 48.745911
-52.212044 121.69973 47.521301
-52.022587 123.21839 47.718933
-50.379185 149.26932 49.50708
-51.328533 139.19025 48.449646
-54.267101 185.69315 45.138855
-53.083061 177.58932 46.467773
-50.046104 180.79083 49.864563
-50.469788 113.94294 49.422791
-52.708153 171.42999 46.890198
-53.652878 177.63559 45.830139
-50.548641 183.33994 49.300964
-53.300816 165.8056 46.229797
-53.489098 181.07922 46.011719
-51.492744 186.42404 48.242981
-51.957748 171.21283 47.730103
-51.298923 130.89957 48.486816
-50.42976 168.56955 49.441162
-50.493046 129.99246 49.388977
-52.110016 170.62259 47.559937
-51.638466 149.01364 48.098083
-50.344173 168.39828 49.536987
-51.15707 159.90515 48.63147
-51.861027 136.80084 47.854919
-50.799553 159.89023 49.031555
-50.166481 156.04245 49.741821
-53.245296 179.26019 46.2854
-50.553806 142.28836 49.315002
-50.716915 157.40942 49.125244
-50.942696 129.28195 48.88623
-53.799793 176.26437 45.666382
-53.430195 170.61975 46.082642
-50.114799 115.46546 49.798157
-50.197678 121.52077 49.714661
-49.043625 127.27769 50.832336
-48.04348 113.57325 51.79071
-49.571594 122.4338 50.326477
-49.896858 166.94986 50.014771
-49.62006 170.91537 50.280029
-49.453819 159.10599 50.439331
-49.34824 126.2777 50.540466
-49.408669 118.75246 50.482605
-49.427696 144.8981 50.464355
-49.201523 144.90469 50.681091
-48.34586 122.32011 51.500977
-49.767014 136.95477 50.139221
-48.665646 114.31553 51.194519
-56.050087 109.54977 42.978882
-55.699409 170.16904 43.440308
-55.513752 179.05734 43.68457
-55.266933 107.31599 44.009338
-56.398979 130.90363 42.519775
-56.208981 132.42056 42.769775
-55.734653 126.60043 43.393921
-56.847015 118.90949 41.930237
-55.576256 156.69229 43.602356
-55.569458 148.9812 43.611267
-55.237984 174.40356 44.047485
-56.363148 109.78614 42.566956
-55.66164 170.63199 43.48999
-55.667854 116.42895 43.481812
-59.092258 188.2095 38.629883
-58.133083 164.59326 40.030334
-57.245049 139.32205 41.333801
-57.282089 186.70233 41.184204
-57.741085 158.93454 40.594421
-57.632637 123.96152 40.819153
-56.956169 153.42831 41.711975
-57.87212 141.04987 40.446533
-57.344212 182.47226 41.105347
-57.678139 148.07471 40.705444
-57.759922 186.82108 40.510498
-58.375175 179.28833 39.658875
-57.482262 169.52902 40.937378
-58.870945 176.4299 38.966064
-55.633057 186.69308 43.508301
-58.115921 171.91827 40.039429
-57.192429 151.40588 41.383118
-57.158264 161.60284 41.410278
-58.130512 140.26511 40.083923
-56.417099 149.60367 42.479553
-56.681889 130.53217 42.145569
-58.418762 152.52899 39.652466
-56.740818 145.03217 42.032715
-57.395084 139.96918 41.120972
-56.618217 184.32626 42.124756
-59.53363 185.79364 38.012817
-57.066368 122.89523 41.619385
-58.969452 160.59677 38.858276
-58.31332 119.38445 39.862366
-58.747101 147.73727 39.196594
-59.207664 164.73703 38.512817
-59.348938 176.17618 38.292175
-57.802998 122.60485 40.581238
-58.014477 127.73193 40.271973
-62.304428 121.69457 33.275208
-62.547852 128.26956 32.803345
-63.001305 111.03231 31.929138
-63.380737 170.81741 31.185364
-63.312504 105.23789 31.328247
-63.253674 128.13602 31.438232
-62.317234 116.1885 33.251343
-63.197598 134.04254 31.545715
-62.899532 115.56463 32.125244
-63.271717 109.68131 31.406433
-62.395771 117.1995 33.099243
-62.254467 117.11752 33.372559
-63.034023 117.72659 31.864746
-62.835205 106.63322 32.25116
-63.484985 153.09927 30.986755
-61.447609 121.37968 34.755066
-61.315685 103.6786 35.05481
-61.372486 123.79533 34.874512
-61.448971 119.95707 34.758606
-61.335579 104.07812 35.018921
-61.764053 125.43729 34.193604
-61.2845 108.2076 35.089905
-61.949306 108.96075 33.942322
-62.889149 160.7258 32.111816
-62.198925 151.87457 33.336426
-60.776176 114.96946 35.937378
-61.884754 126.49734 33.981445
-61.427498 132.87592 34.742554
-60.445061 105.171 36.547668
-62.471684 151.52325 32.868286
-61.179245 176.61578 35.145386
-60.344307 142.75797 36.6828
-61.135105 180.63705 35.222046
-61.814064 167.49286 34.003906
-61.620655 176.10541 34.347107
-60.978432 165.98883 35.51709
-61.943283 187.97458 33.754028
-60.831692 149.06042 35.795898
-61.781429 148.82303 34.077698
-61.714836 187.58347 34.167664
-61.71331 162.75162 34.189941
-61.571533 160.79202 34.447998
-60.368687 163.00266 36.622681
-60.828339 176.76599 35.780212
-61.253487 171.80215 35.014832
-60.092098 132.31833 37.147339
-61.843769 178.7778 33.941284
-61.613224 146.52786 34.38385
-60.455425 129.57974 36.492065
-61.348446 148.8685 34.861084
-61.155514 151.05698 35.208435
-60.097237 172.64206 37.106262
-60.962654 143.49643 35.563293
-61.381268 171.43671 34.783936
-60.477463 113.86134 36.464539
-60.838894 168.40231 35.767639
-59.94397 135.21198 37.39032
-59.952454 133.73581 37.376709
-59.855591 152.92966 37.532532
-59.684345 164.74118 37.796265
-59.029804 135.9364 38.792847
-59.465603 163.42368 38.129272
-59.428139 147.48938 38.186401
-59.58675 153.9483 37.944824
-59.624405 127.45068 37.887512
-59.526398 160.13727 38.036743
-58.694458 108.2662 39.303528
-59.589458 123.08454 37.940735
-59.506622 105.70904 38.066833
-59.801937 138.82242 37.617188
-59.781551 128.47009 37.648193
-59.208393 105.16132 38.520935
-66.642761 128.39728 23.452576
-66.421982 122.65556 24.065857
-66.520744 101.15075 23.791504
-66.580368 146.58664 23.625854
-66.671196 135.83414 23.373596
-66.606102 172.94849 23.554382
-66.036072 126.98985 25.047668
-65.66362 126.49635 25.983643
-65.689384 138.87564 25.903931
-65.457733 110.47709 26.520081
-65.72998 102.04359 25.846558
-65.766251 120.36599 25.733276
-66.396027 134.57211 24.13446
-65.701157 108.73568 25.910889
-66.168449 151.48383 24.685547
-66.238792 152.92767 24.507141
-66.545876 183.54886 23.698853
-65.600143 121.42454 26.14917
-66.247711 115.9967 24.52948
-65.967361 121.53788 25.226807
-65.706963 123.48434 25.878418
-64.599991 130.69183 28.561707
-65.280533 180.85757 26.769043
-65.274193 160.86026 26.844055
-65.091141 108.79111 27.441345
-65.67997 172.27249 25.830322
-64.851151 156.06821 27.879578
-64.690842 138.04819 28.320374
-64.631882 134.13901 28.474426
-64.552483 170.93231 28.556335
-64.805954 142.89474 28.028076
-64.496429 147.36435 28.761963
-64.083832 188.79413 29.63446
-64.118088 168.86703 29.611145
-65.915962 155.9718 25.309204
-64.214294 178.3114 29.350769
-64.532478 135.92526 28.709106
-65.607941 150.12305 26.070312
-65.748672 156.03482 25.712952
-64.934082 157.23145 27.675964
-65.866638 154.86932 25.43158
-65.994804 170.98059 25.074036
-65.643906 189.03976 25.86731
-65.108154 136.22855 27.318359
-65.509659 153.61963 26.29718
-65.097122 157.5593 27.281372
-65.018234 119.89947 27.584167
-64.9674 134.26843 27.664062
-64.847122 151.63333 27.902588
-65.803009 150.90512 25.597046
-65.754539 187.42535 25.605042
-65.292252 148.67416 26.836731
-65.115974 182.73596 27.160706
-64.870399 188.29611 27.736938
-64.012352 132.30695 29.863342
-64.073792 111.69286 29.727966
-64.460579 119.99612 28.876038
-63.904659 102.91143 30.100525
-63.669685 117.47419 30.618103
-63.73761 159.00983 30.468506
-64.258141 117.37203 29.32196
-63.696247 169.82864 30.559631
-64.676651 108.03214 28.400085
-63.729488 185.15555 30.486389
-64.763367 114.42919 28.209045
-63.966743 129.32132 29.963806
-63.877106 138.30612 30.161255
-63.985199 141.30408 29.923096
-63.569736 106.95023 30.826904
-66.833572 167.66382 22.88855
-66.815994 148.98761 22.941345
-66.690857 180.27127 23.317688
-66.785309 175.5571 23.033691
-66.960976 120.57417 22.505371
-66.934303 102.09605 22.585571
-67.13575 101.43415 21.979797
-67.165306 105.82389 21.89093
-66.713181 137.90231 23.250488
-66.882462 136.79636 22.741455
-67.64431 129.28754 20.22998
-67.42614 116.6609 21.030151
-68.430321 175.90894 17.343384
-68.269409 166.66202 17.933289
-68.031296 155.88461 18.796387
-67.65271 162.24496 20.088928
-67.288315 136.30728 21.441833
-68.121872 186.05826 18.379517
-68.318909 180.04193 17.716064
-68.044876 184.92609 18.650635
-67.697998 154.13104 19.95929
-67.818832 181.96036 19.445374
-66.867294 186.73984 22.731934
-68.136353 187.6705 18.323792
-67.678833 163.10315 19.995361
-68.154022 160.50156 18.354736
-67.950714 157.17587 19.071716
-68.34922 164.1922 17.664673
-68.476257 180.68893 17.167664
-67.374908 173.44812 21.015137
-67.309502 134.40604 21.374756
-67.24353 149.4346 21.552734
-68.483261 189.39307 17.113831
-67.724083 145.04587 19.899597
-66.951149 162.44287 22.523376
-67.525192 170.2522 20.504333
-67.586853 160.98523 20.321716
-67.253082 140.19223 21.550903
-67.56987 125.75915 20.500366
-68.564873 144.41586 16.987305
-67.564468 111.10818 20.569031
-68.718796 170.47495 16.362427
-68.193123 150.69073 18.252502
-67.617561 100.76284 20.421692
-68.161903 107.05936 18.514526
-67.546265 104.42504 20.65564
-67.991776 135.65604 19.002808
-68.291756 157.19537 17.888
-68.069977 109.67049 18.823608
-68.412048 162.04633 17.454346
-67.890701 102.56788 19.469421
-68.584778 163.55853 16.850891
-67.947952 134.7619 19.157654
-68.427452 161.89075 17.40155
-70.14164 146.14563 8.3816528
-70.124931 171.61731 8.4995422
-70.12085 157.26065 8.5310059
-70.175095 172.47879 8.1357117
-70.173248 178.45596 8.1483154
-70.08371 140.6015 8.8024292
-70.011391 148.14426 9.3258667
-70.107307 127.96064 8.6329651
-70.184258 123.29662 8.0755615
-69.944321 138.41385 9.8135071
-69.979156 129.397 9.5620422
-69.990189 121.69149 9.4830017
-70.009064 121.67449 9.3461914
-70.159004 153.02609 8.2548523
-69.411469 100.48202 13.125183
-69.818558 149.89563 10.445862
-69.61808 115.01844 11.853424
-69.453171 113.11124 12.787476
-69.768684 123.13827 10.947083
-69.831825 139.26498 10.460785
-69.977753 155.50876 9.5126343
-69.346649 99.875053 13.49115
-69.894852 155.41809 9.9749451
-70.072037 177.15115 8.8068542
-69.355682 102.06539 13.422485
-69.461975 120.83518 12.640869
-69.344925 110.30686 13.367859
-69.364456 116.11393 13.187256
-69.888947 161.71625 9.9530029
-70.063232 186.95206 8.7770996
-69.140839 137.09705 14.37146
-69.010323 182.39117 14.989258
-69.748512 185.0795 10.635651
-69.112305 171.81705 14.424133
-69.725159 161.11978 10.852661
-69.181175 148.60376 14.095886
-69.314476 128.16196 13.379211
-69.395683 166.70276 12.773254
-69.546883 172.02759 11.865692
-69.211853 139.42587 13.945801
-69.639664 177.40332 11.301788
-69.26181 150.64612 13.614502
-69.636726 188.84506 11.281067
-69.139297 162.38126 14.296631
-69.130585 130.71408 14.453064
-69.67823 175.82498 11.080048
-69.051865 180.47983 14.751099
-69.348724 133.43805 13.160156
-69.70668 162.21231 10.957764
-69.185638 154.71686 14.049316
-69.37812 189.12949 12.802124
-69.161232 144.97922 14.225281
-69.491554 166.40909 12.209961
-69.006287 188.59811 14.992371
-69.345726 188.80331 12.993896
-69.319984 131.86575 13.334534
-69.272896 127.81875 13.625061
-69.713577 163.60416 10.912537
-69.410042 157.44876 12.719482
-68.950981 139.13315 15.392456
-68.957191 149.82144 15.364258
-69.036949 122.54171 15.00177
-68.897926 147.15912 15.633545
-68.823219 104.16988 15.94696
-68.525642 125.68876 17.15918
-68.537003 133.12607 17.112915
-68.855637 167.6824 15.814941
-68.800552 153.61746 16.039368
-68.680084 119.78284 16.530029
-68.398018 110.76154 17.679138
-68.850784 137.69608 15.834717
-68.782196 111.1231 16.114075
-70.329575 113.15592 6.5216064
-70.321793 114.51376 6.6087952
-70.289337 124.70686 6.9728394
-70.211128 121.87026 7.8502197
-70.242424 153.00192 7.499115
-70.452301 109.47059 5.1448975
-70.245178 131.64832 7.4682617
-70.344917 138.51071 6.3494568
-70.452065 111.78211 5.1475525
-70.321915 109.36745 6.6074524
-70.342323 107.46532 6.3785095
-70.347046 118.64912 6.3256226
-70.352165 135.0361 6.2681274
-70.240982 108.55767 7.5153503
-70.44294 142.73508 4.7394714
-70.482506 183.36145 3.22229
-70.549629 167.21912 2.3499146
-70.328705 187.61819 5.8758545
-70.254738 188.18372 7.1816711
-70.251854 181.99286 7.3568726
-70.592117 188.80939 1.1615295
-70.495026 186.99103 2.9267578
-70.417587 150.74268 5.0307617
-70.450737 117.83811 5.0985413
-70.472908 154.896 3.9625854
-70.495438 105.81709 4.5430603
-70.392517 157.28821 5.346283
-70.356956 173.49118 5.6553955
-70.36541 157.48492 5.8249817
-70.478203 182.8978 3.308197
-70.579254 153.54108 2.0959473
-70.448639 174.05191 4.0116272
-70.483139 119.61507 4.4859924
-70.422653 135.74127 5.2406311
-70.463409 136.74707 4.4947815
-70.519241 131.59018 3.6036377
-70.41127 132.30716 5.5119629
-70.435631 173.51443 4.2539368
-70.464867 124.11935 4.7213135
-70.564072 171.42059 2.0086365
-70.363533 173.72443 5.5336304
-70.37384 146.85672 5.8873596
-70.313202 178.51801 6.3338928
-70.421448 165.14175 4.6740112
-70.443634 125.69764 5.0677795
-70.59967 180.59219 1.1913452
-70.619049 120.39211 1.5197754
-70.581573 146.44873 2.1429138
-70.581711 112.00329 2.4985046
-70.53656 122.74924 3.4644165
-70.589005 136.50861 2.0691223
-70.592445 122.57818 2.1321411
-70.621513 123.27583 1.4309998
-70.557022 120.08652 3.0037231
-70.618256 171.9082 1.0019531
-70.594818 155.99051 1.7272949
-70.594604 128.93732 2.0143738
-70.616409 130.66086 1.4759521
-70.644608 189.44553 0.19015503
-70.627167 159.44308 0.91925049
-70.639442 172.2236 0.49304199
-70.642731 151.0603 0.6350708
-70.473328 171.5412 -3.145813
-70.449303 169.98859 -3.5736084
-70.208542 186.90369 -7.8609314
-70.270546 160.77774 -6.7566223
-70.315643 162.75577 -5.9536438
-70.516098 179.17484 -2.3842773
-70.301651 180.64587 -6.2029724
-70.206757 186.09857 -7.8927307
-70.290604 170.00592 -6.3994751
-70.329041 186.50815 -5.7153015
-70.310547 178.33615 -6.0444031
-70.241043 122.69947 -7.2818604
-70.420197 177.46194 -4.0919189
-70.315262 163.28705 -5.9605103
-70.314888 139.76529 -5.9669189
-70.247009 173.88937 -7.1757812
-70.362579 168.50336 -5.1179504
-70.256599 179.84943 -7.0051575
-70.292389 186.89206 -6.3678589
-70.367363 158.68954 -5.0326538
-70.251038 131.3877 -7.1038818
-70.466469 163.03751 -3.2679138
-70.420952 148.73486 -4.0782471
-70.219528 177.00534 -7.6651611
-70.400391 176.23013 -4.4445496
-70.436974 187.4335 -3.7931824
-70.355667 154.91739 -5.2409058
-70.20874 161.65503 -7.8572693
-70.563927 185.65646 -1.5326233
-70.249947 187.21106 -7.1236572
-70.3368 177.7886 -5.5770264
-70.41581 151.86298 -4.1699219
-70.306458 101.88306 -6.7840576
-70.411835 107.8704 -5.4927673
-70.542892 167.99988 -2.0527344
-70.558296 168.49728 -1.8771362
-70.389038 137.45541 -4.6970825
-70.383545 112.86466 -5.6096497
-70.331451 124.99331 -5.7226562
-70.355568 106.62962 -6.1141357
-70.54834 159.53125 -2.2916565
-70.390404 106.14356 -5.7731934
-70.619194 136.86639 -1.4823608
-70.547226 127.61396 -2.9183655
-70.600067 153.83017 -1.5548706
-70.63176 144.50314 -1.1359253
-70.550514 147.93893 -2.5360718
-70.531479 103.60569 -3.5825195
-70.485046 105.89967 -4.377533
-70.608505 175.80026 -1.0541992
-70.497398 123.17396 -3.8813782
-70.60128 107.58259 -2.2692261
-70.613396 101.13696 -2.1548767
-70.484451 116.04665 -4.226593
-70.522614 115.06503 -3.5588989
-70.603966 100.17233 -2.3391113
-70.550529 133.12244 -2.771637
-70.525803 139.94754 -3.1057434
-70.52713 105.12045 -3.6363525
-70.634354 120.51638 -1.061676
-70.645966 173.27048 -0.27368164
-70.645164 162.08521 -0.32794189
-70.64399 106.326 -0.40771484
-70.642975 165.59799 -0.47637939
-70.634949 133.60486 -1.0210266
-70.633102 108.95918 -1.1461182
-70.634354 102.45617 -1.0611877
-70.636169 107.88064 -0.93826294
-70.641357 120.41599 0.95358276
-70.648277 136.15839 0.1895752
-70.649536 179.99356 0.051239014
-70.649399 105.10471 0.065917969
-70.640579 115.40421 1.0389099
-70.642914 110.61417 0.7819519
-69.511383 133.39325 -12.407928
-69.673203 179.72156 -11.148376
-69.927551 162.17465 -9.7677307
-69.489441 126.4961 -12.582794
-69.546722 136.81784 -12.177185
-69.495804 186.43198 -12.14798
-69.504822 128.39252 -12.479645
-69.116669 178.27847 -14.433411
-69.879913 164.49936 -10.032684
-69.38356 152.75552 -13.03186
-69.306847 153.56177 -13.477997
-69.39666 182.48578 -12.757629
-69.580261 119.76934 -12.092834
-69.282898 185.64297 -13.406281
-69.487091 188.54135 -12.185272
-69.93544 181.49808 -9.5932007
-69.325821 146.35858 -13.414093
-69.365601 142.49072 -13.205566
-69.648033 154.37711 -11.464508
-69.589584 178.9205 -11.645813
-69.903091 176.23193 -9.8184509
-69.926506 174.18381 -9.6942444
-69.189125 180.78317 -13.990417
-69.325264 184.89963 -13.161865
-69.658173 154.64432 -11.403046
-69.441574 189.57645 -12.44632
-69.389099 126.31207 -13.17453
-69.393517 157.38135 -12.942566
-69.653717 154.18069 -11.432404
-69.272179 181.01727 -13.500061
-69.126106 188.35645 -14.311096
-69.770935 153.41431 -10.747559
-69.490967 163.69879 -12.327148
-69.921463 129.50894 -9.9240417
-70.084572 168.29822 -8.7656555
-70.151604 177.94321 -8.3087463
-69.909668 107.6885 -10.065704
-69.739326 118.97692 -11.117828
-69.942017 107.27642 -9.8606262
-70.009155 124.10618 -9.3811646
-70.125717 153.22003 -8.5491333
-69.612671 112.84383 -11.944366
-69.845459 145.0593 -10.361542
-70.072372 131.60861 -8.9551392
-69.843178 132.13571 -10.415405
-69.873543 139.43198 -10.199554
-69.711441 127.02453 -11.27121
-69.69812 113.76197 -11.396515
-69.866684 111.66663 -10.327728
-70.105858 120.98643 -8.7274475
-70.195633 156.08957 -7.9931946
-70.061172 109.29147 -9.0928955
-70.182732 119.29757 -8.0987549
-70.198997 158.88278 -7.9656677
-70.13147 133.41318 -8.5180054
-68.740646 142.64352 -16.272644
-68.266891 112.71743 -18.113281
-68.721199 133.40433 -16.350983
-68.858788 170.7645 -15.806427
-68.550171 133.86902 -17.011536
-68.270416 101.00922 -18.103729
-68.7649 180.82404 -16.165649
-68.753128 105.99499 -16.237152
-68.417549 139.01254 -17.522095
-68.474838 154.16974 -17.295502
-68.207909 119.58785 -18.338745
-68.28949 109.09098 -18.027222
-68.391968 138.41788 -17.621124
-68.326965 131.33542 -17.874695
-68.770393 148.34308 -16.155731
-68.850876 127.02668 -15.841614
-69.080353 119.12305 -14.737122
-69.073349 151.03128 -14.771301
-68.902237 107.81124 -15.606018
-68.929512 186.56406 -15.473022
-69.439178 105.34364 -12.986633
-69.031387 169.26654 -14.976013
-69.404198 104.96778 -13.157318
-69.021179 171.2525 -15.025818
-69.404297 109.46741 -13.15686
-69.292007 113.22338 -13.70462
-69.029289 115.16879 -14.986206
-68.984016 146.7811 -15.207123
-69.116333 111.14094 -14.561615
-68.973358 103.15461 -15.259094
-65.63369 107.24114 -26.13327
-66.386658 170.15439 -24.129578
-65.901825 122.94587 -25.432983
-66.631424 168.34207 -23.486237
-66.063438 125.67747 -25.007263
-66.283638 120.36181 -24.424805
-66.295601 155.23221 -24.381592
-66.538742 138.11829 -23.742096
-66.574684 151.07803 -23.642456
-66.242325 119.26255 -24.53479
-66.523773 179.37003 -23.768188
-66.193024 135.38321 -24.660278
-66.588409 142.97778 -23.607849
-66.632599 155.17273 -23.483124
-66.568642 107.24955 -23.663666
-66.721588 151.5199 -23.208435
-68.238731 174.39047 -17.942322
-67.325317 133.34891 -21.112793
-67.656578 146.02448 -19.962982
-66.973145 171.22107 -22.335266
-66.870926 169.3815 -22.690063
-67.107437 179.61356 -21.869141
-67.584732 182.14328 -20.212372
-67.186028 144.16983 -21.596283
-67.42128 182.08188 -20.779755
-66.819618 140.67911 -22.868134
-67.153755 166.93689 -21.708344
-67.673309 181.93408 -19.904938
-68.013565 189.72827 -18.723907
-67.216316 186.55008 -21.491241
-66.71508 103.43543 -23.230957
-67.082626 134.05246 -21.9552
-68.429413 180.6835 -17.280457
-67.634811 173.10284 -20.038544
-67.650024 155.86038 -19.985748
-67.141426 157.36801 -21.751129
-67.745934 170.07712 -19.652863
-66.947807 167.95654 -22.423218
-66.835724 156.48373 -22.812256
-68.33226 183.52112 -17.617676
-67.79406 151.67584 -19.485779
-67.022949 173.59854 -22.162415
-67.784225 183.71561 -19.519958
-67.667664 161.37302 -19.92453
-67.310532 158.41284 -21.164154
-66.781937 187.76144 -22.998962
-68.67527 187.11948 -16.427063
-68.021744 156.46945 -18.721497
-66.895233 107.2393 -22.641235
-67.981697 152.76242 -18.886444
-67.864555 133.81897 -19.393738
-68.178497 157.99161 -18.221924
-67.857224 144.45688 -19.344849
-67.224121 100.75912 -21.673615
-67.870781 124.66166 -19.436066
-68.14975 141.10986 -18.429016
-68.023804 126.22706 -18.934418
-68.334503 154.74155 -17.743469
-67.762833 141.33508 -19.668976
-67.450714 109.82758 -20.884857
-68.165268 128.23224 -18.466858
-68.721855 186.82925 -16.282196
-67.524628 111.4362 -20.636749
-68.071304 135.24368 -18.720642
-67.678322 114.95901 -20.119659
-61.375706 128.86694 -34.861877
-60.870277 109.10729 -35.831818
-62.507614 164.55389 -32.751587
-61.016357 130.67297 -35.436859
-60.999138 115.00291 -35.578308
-62.178539 159.09976 -33.329529
-61.654587 145.44458 -34.285645
-60.048344 129.24579 -37.176819
-61.645855 160.18512 -34.286346
-61.750675 170.54227 -34.09671
-60.193287 175.00479 -36.914581
-60.425049 153.2583 -36.495209
-60.888874 140.20215 -35.656006
-61.209866 166.91168 -35.075226
-60.438019 145.31046 -36.471741
-60.983833 157.80566 -35.484192
-61.351017 167.5903 -34.819824
-62.1432 188.84775 -33.386475
-60.690163 130.23511 -36.015533
-62.259762 181.10257 -33.175598
-59.826061 166.08618 -37.579041
-61.53989 149.40045 -34.478058
-62.093075 177.45895 -33.477173
-61.314037 150.46716 -34.886749
-61.80003 152.20914 -34.007416
-62.29126 163.24228 -33.118591
-62.038792 168.52872 -33.575378
-62.00452 186.1041 -33.637421
-60.982403 169.15051 -35.486786
-61.554684 168.7399 -34.451324
-61.057262 181.61765 -35.351349
-61.474098 152.13345 -34.597137
-60.076641 138.05008 -37.12561
-60.00182 126.04725 -37.261017
-62.688396 179.79764 -32.400024
-60.679825 187.98898 -36.034271
-62.536205 178.16858 -32.675415
-59.56509 113.8677 -37.983582
-59.657417 157.72723 -37.840912
-59.768776 111.8637 -37.668884
-59.654823 158.94611 -37.84494
-59.784767 187.35898 -37.644165
-59.607052 169.01218 -37.918701
-59.085789 117.92124 -38.72406
-59.50388 133.84924 -38.078125
-62.714577 151.42081 -32.439789
-63.297417 172.21518 -31.348175
-61.680214 117.50407 -34.369171
-61.981277 123.60268 -33.817535
-62.77948 162.87112 -32.294189
-61.409016 107.60108 -34.877686
-62.474594 149.65121 -32.871338
-62.444916 129.23557 -32.977905
-62.19268 144.32935 -33.386871
-62.36969 123.92034 -33.125732
-62.306648 144.87787 -33.182678
-62.311707 127.78909 -33.218689
-63.204403 163.51538 -31.53656
-63.013165 169.98074 -31.859741
-62.351639 129.45221 -33.14328
-63.573727 149.02798 -30.811646
-63.449184 175.85278 -31.058044
-63.519394 108.49384 -30.919128
-63.414059 160.349 -31.127533
-63.330185 137.67038 -31.293488
-63.564301 188.17276 -30.830292
-63.058064 105.42988 -31.831879
-63.517017 146.16037 -30.923859
-63.530102 182.79791 -30.89798
-63.452057 159.18826 -31.052368
-63.612568 181.27957 -30.734802
-63.196609 119.03001 -31.557739
-63.732552 110.3133 -30.46286
-63.792717 114.14112 -30.317596
-64.560783 147.63406 -28.463348
-64.194679 151.91187 -29.347198
-65.000107 171.04684 -27.40274
-65.385513 166.21222 -26.472321
-63.744324 130.68115 -30.434418
-64.739662 157.77838 -28.031494
-64.694336 150.39954 -28.14093
-64.014763 120.83006 -29.781525
-64.868805 156.91455 -27.719727
-64.378906 182.38486 -28.902466
-65.187393 183.5054 -26.950623
-66.038086 177.79959 -24.896881
-64.39286 125.81475 -28.868713
-64.42466 139.06244 -28.791992
-64.284386 145.51309 -29.130646
-63.987915 132.28345 -29.846375
-65.136169 172.70786 -27.07428
-65.409897 167.84622 -26.413452
-64.14019 121.86141 -29.478729
-64.788452 188.33212 -27.913757
-65.361267 181.58789 -26.530853
-64.200768 121.67826 -29.332489
-64.007149 170.61279 -29.799957
-64.268173 132.26172 -29.169769
-63.80843 115.87241 -30.279663
-63.81282 187.48105 -30.269135
-63.749584 116.78852 -30.421692
-65.73616 171.31973 -25.625763
-64.425865 125.12942 -28.796997
-66.182671 178.63516 -24.560272
-65.153732 143.55011 -27.0784
-64.431885 123.53394 -28.799896
-65.674805 129.78049 -25.955933
-65.948563 161.73203 -25.180115
-65.559143 122.91595 -26.253052
-65.279991 137.63699 -26.825439
-65.875717 158.15048 -25.3638
-65.066086 122.4134 -27.386597
-65.850052 158.71896 -25.420074
-65.323204 139.19983 -26.719055
-64.622314 115.81464 -28.435272
-66.510925 185.51187 -23.779938
-65.252495 112.37687 -27.00531
-65.720886 136.54819 -25.818939
-66.257446 173.39673 -24.417511
-65.145668 110.17072 -27.26059
-65.683754 124.97457 -25.957611
-51.221664 165.01294 -48.542053
-51.065052 155.82513 -48.717285
-49.975803 182.83929 -49.936157
-53.759945 188.66528 -45.701721
-50.320885 133.52036 -49.550018
-51.383694 156.90756 -48.360718
-52.187683 167.42639 -47.46106
-50.832012 162.4411 -48.978058
-52.874821 185.65161 -46.692139
-50.569145 161.73007 -49.272217
-51.006317 167.92731 -48.78302
-51.024677 150.03156 -48.762482
-50.200153 185.41446 -49.685089
-53.214855 176.21805 -46.311676
-51.043667 146.15201 -48.741241
-52.421535 150.73889 -47.199402
-51.260666 186.51736 -48.498383
-50.712555 122.28187 -49.111755
-50.52792 162.09262 -49.318359
-52.400707 161.98062 -47.222717
-51.082714 175.55334 -48.69754
-51.302868 157.22534 -48.451172
-51.473137 165.11325 -48.260651
-51.716541 143.53726 -47.988251
-50.170841 188.66394 -49.717926
-53.250206 170.43799 -46.272095
-50.005745 146.27444 -49.902679
-50.449635 144.38049 -49.405945
-50.990631 142.01865 -48.800568
-51.274395 135.25211 -48.483032
-50.745583 121.87005 -49.074768
-50.795536 181.51865 -49.01886
-53.709038 165.99786 -45.776337
-52.689068 150.3674 -46.910645
-53.898476 164.16629 -45.588104
-50.789547 107.71616 -49.087311
-53.536888 165.72165 -45.956604
-52.442413 147.4798 -47.180756
-52.917191 138.06281 -46.731842
-50.765076 114.91378 -49.078644
-52.259518 133.98694 -47.434784
-54.506264 181.24503 -44.875397
-50.699818 108.74833 -49.17572
-52.730404 123.46767 -46.969269
-53.485588 124.63871 -46.11145
-52.431252 112.95898 -47.319885
-54.669899 177.79611 -44.710968
-54.41148 150.2872 -45.033661
-53.119995 109.73158 -46.542145
-53.636532 153.56281 -45.909119
-52.189289 108.45721 -47.599152
-52.45723 109.2452 -47.294434
-53.036285 115.04327 -46.631409
-53.716118 146.6059 -45.826355
-52.125759 111.00703 -47.668488
-53.803677 139.64636 -45.734528
-53.642696 132.98383 -45.924286
-53.599018 108.93403 -45.999695
-54.770573 143.63098 -44.622406
-54.498158 125.31353 -44.954651
-54.669724 143.47076 -44.743866
-55.145084 115.11613 -44.162262
-54.944874 124.40806 -44.409363
-54.963985 140.13675 -44.385773
-54.994091 117.33215 -44.348602
-54.954426 131.85236 -44.397552
-56.515148 186.51791 -42.247314
-57.686756 162.40112 -40.5961
-55.302814 165.24597 -43.955963
-57.272041 157.09741 -41.180603
-58.532673 183.6319 -39.4039
-57.086269 183.19833 -41.442413
-55.323521 119.35368 -43.926758
-55.534016 153.42908 -43.630096
-57.011108 182.90262 -41.54834
-55.989574 167.0618 -42.988068
-55.418854 146.10132 -43.792419
-58.502396 186.78503 -39.446564
-56.066483 133.64941 -42.879669
-56.434093 183.58768 -42.361572
-55.578678 119.40025 -43.567169
-57.269993 164.19159 -41.183472
-57.330479 154.89798 -41.098236
-56.628948 177.49432 -42.086945
-57.439045 168.40097 -40.945221
-55.763691 172.24017 -43.306396
-55.560555 132.50616 -43.592682
-56.21344 151.53253 -42.672546
-55.960152 138.9429 -43.02951
-55.67783 123.07072 -43.427429
-56.442764 154.82059 -42.349335
-56.11055 175.54071 -42.817566
-56.003349 150.47864 -42.968628
-56.252541 171.34967 -42.617432
-56.148724 149.0369 -42.763763
-56.431099 142.42868 -42.365784
-55.43235 140.56689 -43.773376
-57.403572 144.63922 -41.012665
-57.060913 137.35355 -41.498596
-56.90279 118.06751 -41.810059
-56.865051 117.34274 -41.863129
-58.440445 160.20044 -39.577728
-57.648354 151.15738 -40.658325
-56.694252 121.70358 -42.061584
-56.44289 113.8783 -42.431671
-57.437489 145.10812 -40.965942
-58.597301 163.65915 -39.354614
-58.617275 134.32947 -39.384644
-57.927116 114.88166 -40.393066
-57.676151 128.72885 -40.730713
-58.565285 148.71143 -39.438599
-57.763969 114.02085 -40.626282
-58.591064 146.73669 -39.404694
-59.185135 173.91434 -38.522156
-58.909737 136.1264 -38.966278
-58.314056 139.0256 -39.809296
-57.740513 116.56419 -40.656067
-59.188892 175.27991 -38.514923
-57.918446 123.52709 -40.393372
-59.660847 182.67224 -37.833527
-59.508705 180.04532 -38.053497
-57.405041 109.14379 -41.143433
-43.382389 131.89481 -55.741943
-42.398216 121.40871 -56.487274
-43.085541 126.82433 -55.966766
-43.693092 111.3249 -55.506775
-42.905506 118.95123 -56.103119
-41.783207 110.55755 -56.953064
-43.23185 114.08294 -55.856049
-43.706226 147.92392 -55.496613
-43.355946 141.06812 -55.761932
-43.989063 184.63882 -55.282257
-43.306683 138.06461 -55.799255
-43.800343 164.84763 -55.425262
-43.642708 128.5751 -55.54483
-42.693481 151.0715 -56.263519
-47.93779 185.48584 -51.761658
-46.268501 159.1853 -53.253418
-46.015106 165.89264 -53.479858
-44.550457 184.15994 -54.788757
-47.525982 177.42526 -52.129669
-45.793831 149.18054 -53.677612
-47.196274 162.89389 -52.424316
-45.927563 143.35788 -53.558105
-44.93586 122.12859 -54.444336
-48.977833 184.41766 -50.832214
-44.517105 143.086 -54.818573
-49.254829 189.82825 -50.584686
-45.521091 171.91483 -53.921356
-44.711597 126.26991 -54.644745
-44.166058 138.39508 -55.132294
-45.221771 154.83701 -54.188843
-44.819195 123.19816 -54.548615
-45.850521 171.26102 -53.626953
-47.169216 164.96332 -52.448486
-44.270576 182.03763 -55.038879
-45.203255 129.0029 -54.205383
-44.772709 150.9964 -54.590149
-46.711208 164.04999 -52.857788
-44.255581 121.40034 -55.052277
-48.498409 186.00916 -51.260651
-44.367329 117.45887 -54.952423
-45.697826 142.43518 -53.763397
-47.420345 172.54471 -52.22406
-47.458637 142.85614 -52.247162
-47.10099 142.96051 -52.547089
-48.064915 161.32205 -51.670471
-48.930523 174.16901 -50.896606
-49.293041 180.80728 -50.567932
-45.353729 111.66831 -54.128784
-48.409168 158.56351 -51.39151
-47.926636 165.30359 -51.772003
-46.490898 131.14838 -53.1026
-45.853031 133.25537 -53.630554
-46.216721 132.96359 -53.326202
-47.241825 144.72055 -52.422394
-47.043861 119.13529 -52.68222
-44.901875 113.78396 -54.500458
-48.140053 149.94189 -51.649017
-47.996815 137.79633 -51.800079
-48.597538 111.81899 -51.254242
-49.18195 164.66022 -50.689301
-49.619396 181.03818 -50.276489
-48.895947 133.97253 -50.967865
-47.61058 123.1473 -52.164642
-47.691406 116.6038 -52.092529
-47.270447 112.73704 -52.484619
-47.830154 137.05093 -51.954987
-48.908352 134.61945 -50.956055
-48.577244 146.81335 -51.257874
-47.936703 132.569 -51.858124
-49.170673 126.87218 -50.716156
-49.063808 109.38122 -50.822845
-47.34967 122.40836 -52.406952
-36.198528 176.66806 -60.596039
-35.16507 153.90994 -61.208099
-33.450611 143.56702 -62.113098
-33.565033 141.1745 -62.065125
-35.338562 160.71991 -61.093323
-32.518929 128.01431 -62.644897
-33.79763 136.86575 -61.965332
-36.92746 186.38593 -60.18985
-33.171566 137.091 -62.279694
-32.527435 131.09781 -62.628204
-30.879219 121.93731 -63.528961
-32.093639 167.17499 -62.857758
-31.68325 187.06644 -63.084534
-31.763046 169.008 -63.040436
-31.540359 171.03998 -63.163544
-32.057999 132.71826 -62.877441
-32.036804 134.35052 -62.889191
-32.272484 172.81598 -62.758881
-32.225307 166.29868 -62.784973
-33.30883 162.1015 -62.186157
-36.054916 187.8782 -60.668427
-33.196869 158.40427 -62.248016
-32.601543 162.07254 -62.577057
-31.447495 159.79318 -63.214874
-32.801105 138.50745 -62.466766
-33.308681 143.17047 -62.186218
-32.053436 187.12073 -62.879974
-33.253933 186.57562 -62.216461
-34.62991 187.0249 -61.455994
-31.09024 179.01547 -63.412292
-31.919979 141.40341 -62.953735
-36.343555 188.79611 -60.508911
-30.831131 149.18011 -63.555511
-33.231373 180.17993 -62.228943
-32.940144 153.35962 -62.389893
-35.399242 179.65067 -61.030792
-35.580639 175.06079 -60.930542
-35.633831 175.10696 -60.901154
-30.525276 149.40182 -63.714203
-30.173874 146.21954 -63.880157
-29.993584 112.53666 -63.965332
-30.445259 161.23605 -63.751984
-30.344292 131.57602 -63.799683
-35.556469 135.34488 -61.014465
-35.229706 149.55231 -61.181824
-35.513329 124.9902 -61.049133
-35.849777 140.129 -60.846161
-35.370502 117.5615 -61.136322
-35.816242 154.15036 -60.850403
-33.825581 111.32696 -62.003265
-35.519108 135.4032 -61.035187
-36.058117 120.60593 -60.750214
-35.30574 148.16995 -61.140869
-35.428078 124.57397 -61.097046
-35.920601 114.78115 -60.832794
-35.37999 139.99429 -61.107941
-36.712357 175.03586 -60.329773
-37.537003 176.8075 -59.852173
-37.087315 132.93018 -60.126007
-37.150528 136.41852 -60.087524
-37.036839 152.49493 -60.156738
-36.973282 135.42371 -60.195435
-37.494358 186.60501 -59.878143
-37.47081 113.27503 -59.892456
-37.374321 162.24826 -59.951233
-39.059017 186.73004 -58.777374
-42.50769 189.31619 -56.330383
-41.954544 169.20523 -56.7229
-40.025467 161.3782 -58.091644
-42.452473 182.19855 -56.369598
-38.612717 159.03717 -59.094055
-40.332249 167.85428 -57.873962
-38.842873 129.30621 -58.930756
-38.730968 166.99301 -59.010132
-39.807388 174.41095 -58.246368
-39.923794 183.19852 -58.163788
-39.416142 157.81448 -58.523987
-38.021656 187.39755 -59.513428
-39.226105 186.7395 -58.658813
-38.031143 159.51236 -59.506714
-39.52087 140.46805 -58.449677
-37.737038 149.3613 -59.715393
-39.335407 144.71924 -58.581268
-39.323479 187.1315 -58.589722
-38.615974 155.69101 -59.091736
-39.640694 145.94867 -58.364655
-38.530495 169.61343 -59.152405
-41.183182 162.54688 -57.270203
-38.147713 188.93521 -59.423981
-39.135952 169.91846 -58.722809
-40.233192 174.5506 -57.944244
-38.353382 162.45255 -59.278046
-37.65826 179.93762 -59.771301
-38.779724 122.42449 -58.991699
-39.774574 137.17719 -58.277435
-41.901142 166.2157 -56.76413
-41.232609 154.23602 -57.255219
-41.332657 128.53461 -57.253296
-42.946873 171.30206 -56.047485
-42.455894 160.53708 -56.408752
-40.950291 121.25785 -57.531952
-40.459362 125.29783 -57.857056
-42.03231 156.45752 -56.707733
-41.067204 119.93395 -57.455444
-40.068981 124.46743 -58.125427
-40.057697 110.81231 -58.166504
-40.657356 130.36832 -57.709595
-40.31776 122.38206 -57.960785
-40.790352 136.06973 -57.604919
-39.873249 130.83054 -58.243408
-42.760368 162.58438 -56.196045
-19.933632 172.76871 -67.665039
-20.139664 163.84378 -67.605713
-17.645714 172.94678 -68.324188
-16.00576 170.33713 -68.796661
-17.790855 153.00287 -68.282379
-21.667091 181.09064 -67.165649
-16.413483 141.18866 -68.679199
-15.816223 146.96902 -68.851257
-17.108925 164.89996 -68.478851
-18.589478 169.07925 -68.052307
-21.881203 187.28241 -67.103973
-16.27243 162.10678 -68.719849
-20.738503 177.80475 -67.433167
-19.72168 186.64297 -67.726135
-17.122353 153.19098 -68.474945
-20.600807 186.38315 -67.47287
-21.039177 187.14893 -67.346558
-17.966568 182.56537 -68.231781
-18.415291 162.88812 -68.102478
-20.428474 173.42453 -67.522491
-17.341614 164.63712 -68.411804
-19.351173 177.97012 -67.832855
-16.027542 130.95691 -68.790405
-18.068237 185.3623 -68.202484
-17.148491 133.58838 -68.467438
-18.273933 149.32986 -68.143188
-16.36351 121.36353 -68.693573
-17.282555 155.17172 -68.428833
-19.481758 174.3905 -67.795227
-18.418083 136.75214 -68.126099
-20.172554 157.25247 -67.613922
-16.484871 112.9235 -68.696442
-18.881996 143.34445 -67.984985
-19.010246 134.04401 -67.978607
-19.522179 116.96972 -67.878632
-17.088013 118.14199 -68.528748
-19.1856 122.46281 -67.956879
-20.311691 143.34879 -67.609314
-17.705551 123.03593 -68.352478
-22.789024 183.15305 -66.858154
-20.682472 139.85504 -67.517548
-21.557068 171.35553 -67.214264
-22.519676 180.16238 -66.93692
-18.904869 112.31434 -68.054321
-19.999023 118.25768 -67.747925
-18.450317 114.63259 -68.171112
-18.357285 133.49606 -68.154877
-21.723335 132.16766 -67.20462
-22.830132 115.34064 -66.849396
-22.330154 132.78928 -67.009613
-22.116882 154.09491 -67.077606
-22.796364 149.2359 -66.859375
-21.790611 146.44873 -67.182648
-21.562263 147.65775 -67.255981
-20.884483 125.69367 -67.474335
-22.474892 150.45697 -66.962646
-22.444565 149.98767 -66.972382
-23.27256 140.87784 -66.706573
-22.607346 122.97103 -66.920776
-22.223404 142.58575 -67.043671
-23.278877 114.06124 -66.704681
-27.468536 165.44635 -64.97287
-28.323303 170.31903 -64.618805
-25.461845 159.00302 -65.804077
-23.737114 189.91605 -66.518494
-24.73288 150.8591 -66.105988
-27.41021 166.16724 -64.99704
-24.565231 130.12436 -66.175446
-25.305786 148.59457 -65.868683
-24.484688 140.19226 -66.208801
-29.060425 184.59058 -64.313477
-25.751778 148.3494 -65.68396
-26.9328 162.36359 -65.194794
-25.529045 166.76138 -65.776245
-25.930321 155.26376 -65.610016
-24.862755 133.87982 -66.052216
-24.650078 161.24316 -66.14032
-26.883018 157.08905 -65.215393
-24.990898 141.58167 -65.999115
-24.342293 136.3978 -66.267792
-24.511581 164.24463 -66.197693
-24.151688 171.1572 -66.346771
-26.592255 163.85678 -65.335846
-26.169876 163.66666 -65.510803
-28.587296 176.12589 -64.50946
-24.62674 183.56131 -66.149994
-25.085991 125.56492 -65.979645
-27.125092 149.54428 -65.132782
-27.358536 146.38242 -65.054871
-24.592438 111.81727 -66.210175
-26.631287 144.3562 -65.335876
-25.922699 132.21643 -65.642395
-27.725578 147.72327 -64.912018
-25.269897 122.08967 -65.921417
-24.005539 115.18946 -66.420837
-25.368454 116.68662 -65.901581
-26.986061 136.81232 -65.226257
-28.977127 164.59634 -64.385315
-26.248329 118.56152 -65.563446
-24.840294 122.68957 -66.081604
-29.074173 138.47931 -64.363556
-30.369675 180.24081 -63.783356
-29.022552 145.9361 -64.38266
-29.613708 123.89814 -64.135986
-28.704826 146.15103 -64.520355
-29.081032 162.32059 -64.350067
-29.403946 152.05807 -64.214569
-30.173782 177.00793 -63.869751
-27.545631 124.75277 -65.032501
-27.605537 115.69608 -65.010498
-29.567894 173.06284 -64.134247
-28.638306 127.97608 -64.55722
-29.41452 122.58427 -64.222961
-27.101593 113.2727 -65.230103
-0.9156723 162.00571 -70.6315
-0.49147797 142.86011 -70.640076
-1.1217499 137.29733 -70.62735
-0.34352112 159.35168 -70.643066
-1.5991364 146.03403 -70.617706
-2.2800827 114.00338 -70.603943
-1.4742813 125.56844 -70.620209
-1.6257019 116.2383 -70.617157
-1.2938919 130.72079 -70.623871
-1.8760452 137.19543 -70.612122
-0.30284119 161.53903 -70.64389
-3.9908066 169.92728 -70.45752
-1.4205627 155.22211 -70.620209
-1.5504608 156.05585 -70.611877
-5.6384659 163.95908 -70.372467
-4.7651062 174.23737 -70.408691
-3.377327 181.86508 -70.477142
-4.7030869 168.8049 -70.418945
-4.0486221 157.47156 -70.469818
-4.5050812 164.84735 -70.434998
-1.8358841 148.37741 -70.605408
-3.5805817 131.75488 -70.528107
-4.7610779 152.26071 -70.43631
-4.0837936 172.0939 -70.449615
-3.1402817 136.33356 -70.54715
-5.368454 161.77884 -70.39032
-4.6979523 188.91946 -70.394196
-1.4166946 171.19244 -70.600494
-2.2164841 178.97186 -70.545929
-5.5119629 173.64926 -70.367493
-1.9992065 142.07825 -70.604065
-2.8412018 139.27368 -70.560272
-5.8204422 162.81268 -70.363647
-1.5032806 165.2345 -70.603088
-6.3501511 170.29556 -70.324585
-5.0700684 179.24844 -70.385315
-3.3683014 176.10651 -70.484802
-4.8275299 143.46979 -70.442596
-5.860817 127.80878 -70.386108
-6.8666229 173.09799 -70.289185
-5.2007599 149.57938 -70.414032
-5.5308151 151.93994 -70.3909
-4.7491913 131.45218 -70.456024
-6.2571106 138.95245 -70.352539
-3.6643677 113.19907 -70.539337
-6.4900284 124.75878 -70.347198
-4.1390686 124.48109 -70.50061
-4.9468994 131.27826 -70.443268
-6.0721436 127.55164 -70.372467
-7.5863495 139.94586 -70.238617
-7.7668076 152.72495 -70.220337
-7.6090546 135.20828 -70.236267
-7.4019699 144.9989 -70.257263
-7.3456268 113.02421 -70.26297
-7.0858765 126.46235 -70.289307
-10.995331 188.10025 -69.68161
-10.903603 169.61765 -69.697205
-11.336288 176.21295 -69.623688
-8.7073441 154.85724 -70.070374
-12.967545 169.12558 -69.346527
-12.582985 173.46375 -69.411865
-8.9586563 135.33481 -70.027649
-11.669075 159.39883 -69.567139
-7.9388733 185.27399 -70.200928
-13.287796 182.69492 -69.292114
-8.2734985 187.61169 -70.144073
-13.414398 173.89835 -69.270599
-11.128242 157.95502 -69.659058
-8.3832703 138.00302 -70.125427
-13.325676 173.20114 -69.285675
-9.0106125 188.81067 -70.018829
-11.633598 159.36447 -69.573181
-11.686523 165.84271 -69.564178
-14.196877 184.53171 -69.137634
-10.258965 183.3866 -69.806732
-12.896111 181.8548 -69.358673
-10.71563 172.00092 -69.729156
-11.478752 185.55634 -69.599487
-10.863335 185.72211 -69.704041
-8.2445908 168.42429 -70.148987
-14.279213 179.21744 -69.12735
-9.5785217 118.30038 -69.972198
-9.3217468 119.00919 -70.001801
-9.7775955 127.32386 -69.910004
-10.116898 133.46533 -69.841858
-11.787056 152.40591 -69.552765
-11.964821 149.26553 -69.543152
-13.998589 169.1937 -69.19809
-13.873421 161.43924 -69.228882
-13.746025 147.94199 -69.267548
-12.958 120.33045 -69.43396
-11.577927 115.45577 -69.669006
-14.512764 157.41977 -69.128174
-13.174881 131.41174 -69.383636
-13.510635 127.85175 -69.332642
-13.023918 117.53704 -69.426666
-11.102249 117.89645 -69.74469
-12.346832 131.60544 -69.52063
-13.06945 128.42474 -69.404999
-10.988083 127.7562 -69.750824
-12.364555 144.81699 -69.500519
2.8888016 151.61124 -70.546783
2.0072098 163.39487 -70.580383
2.0244522 157.02283 -70.588043
2.1807861 155.06036 -70.581909
1.6409912 180.56317 -70.577789
2.3675842 167.27045 -70.554901
2.9032364 181.31747 -70.50589
3.0602493 173.99747 -70.506958
2.3601608 151.6015 -70.576477
2.5935822 180.61682 -70.524231
1.3338089 158.38235 -70.613525
0.41229248 160.59705 -70.643829
0.22092438 186.14447 -70.644623
1.1288757 152.25259 -70.621735
2.590538 141.34726 -70.575317
0.63121796 158.18521 -70.637024
3.032341 133.68286 -70.562195
0.73503876 164.86011 -70.632141
2.4644852 119.66903 -70.584229
1.7597733 156.80313 -70.59967
1.6186905 130.98981 -70.610016
1.5305405 162.76324 -70.606018
0.71980286 140.86935 -70.637878
1.9717331 136.87875 -70.596954
0.44035339 117.73937 -70.648041
0.20337677 145.63953 -70.649109
0.32704163 120.1731 -70.64856
-7.3499756 117.64619 70.26532
-7.6399002 113.13425 70.234497
-7.8650513 186.3082 70.210571
-7.6642151 121.40485 70.231934
-6.4283981 132.38922 70.338013
-4.6942749 123.43261 70.470886
-5.9058533 121.56989 70.380798
-7.0797501 160.64545 70.279663
-4.6453247 132.26038 70.471619
-5.3438034 143.92682 70.415344
-6.7498474 162.64072 70.303711
-4.9378052 117.59156 70.454651
-5.7059326 142.59012 70.388672
-6.2149506 137.21957 70.352356
-6.6243134 154.61978 70.315796
-6.8968201 144.61053 70.298828
-6.3259735 160.59131 70.336121
-5.1096954 121.58163 70.44043
-5.1904068 174.6348 70.386169
-4.427742 152.54526 70.458435
-3.8995514 152.18271 70.488586
-2.7985077 172.02417 70.523987
-3.2708664 128.73181 70.555237
-3.3049545 182.30426 70.481812
-1.2255325 189.11526 70.589539
-4.2470016 170.3812 70.444824
-6.0378571 183.17178 70.327148
-1.0820847 177.0397 70.613708
-1.2150803 187.80746 70.591858
-4.1337814 167.12457 70.455505
-2.9984665 161.73764 70.526428
-3.4425812 125.38094 70.550049
-4.5575485 142.15271 70.465027
-2.3683395 182.71628 70.533875
-1.7271881 155.47842 70.606262
-6.2542419 175.20441 70.325684
-5.469162 184.98224 70.356689
-2.6359406 160.67355 70.548279
-2.4094543 169.94315 70.548584
-1.9591522 172.95963 70.569885
-2.0636826 159.62915 70.581787
-6.5839996 184.54144 70.294617
-5.4723358 152.8931 70.399353
-1.0635147 152.27066 70.623474
-0.10678101 162.90515 70.647339
-1.5460663 136.41766 70.611389
-1.080101 135.16833 70.623047
-0.27889252 136.37366 70.643066
-0.74124908 133.4689 70.631531
-1.2268982 143.26981 70.619385
-2.239769 139.04401 70.594055
-0.98953247 145.14124 70.625305
-1.0380783 122.29139 70.624084
-0.35405731 160.60825 70.641174
-1.1676865 114.07859 70.62085
-1.3742218 127.21705 70.615723
0.49337006 132.63654 70.622314
0.03213501 159.61523 70.648193
2.3181152 187.14072 70.519836
1.9312286 133.53268 70.541565
2.7286682 146.51834 70.496765
0.45874023 129.97263 70.624268
1.5308762 146.96872 70.564026
0.63932037 124.19947 70.614136
0.14414215 177.409 70.641907
0.46738434 166.52118 70.623779
2.6849289 188.22409 70.499207
1.9382782 155.06262 70.541138
0.75215912 170.11505 70.607788
0.85149384 150.93021 70.602173
0.34841156 156.16663 70.630432
2.017067 139.46393 70.536743
2.0995941 125.54093 70.562805
2.2079697 131.84662 70.539612
1.885994 130.07346 70.55249
-4.4429626 95.685814 -49.440155
-1.4105606 96.647774 -49.600281
-10.423233 96.368492 -48.530396
-27.067772 91.565605 -41.608276
-19.379044 93.508522 -45.667694
-32.561302 90.372719 -37.468231
-30.772072 90.400322 -38.946472
-30.225311 92.170143 -39.373138
-31.528103 91.083565 -38.352386
-35.465782 89.400276 -34.735199
-39.764519 87.522224 -29.693359
-39.624432 87.429207 -29.871979
-38.506756 88.356026 -31.297058
-43.454937 85.501991 -23.956543
-48.151779 83.608009 -12.074615
-48.891945 82.182045 -8.6179199
-47.726322 83.424812 -13.665283
-49.620857 83.258217 1.6479797
-49.594379 82.683968 -2.2542419
-49.195835 81.988167 6.5209351
-48.087986 83.694069 12.246521
-47.428841 84.567772 14.59314
-45.404037 84.074471 20.08197
-46.545246 83.603951 17.230347
-42.71841 85.364296 25.305054
-39.724541 86.842598 29.772705
-32.601551 90.207191 37.432068
-31.419315 90.506218 38.421753
-32.703617 90.268578 37.346375
-27.812302 91.277229 41.09729
-14.184067 95.015236 47.56665
-3.7530441 95.964882 49.499817
1.732872 99.952141 55.115967
2.1163177 100.5862 55.862854
1.6980896 111.68276 69.090759
1.33284 105.03957 61.183167
1.7386856 105.61555 61.863281
1.2055511 107.43627 64.039917
0.83322906 97.391594 52.079895
-0.80380249 101.64855 57.14502
-0.2592392 100.16303 55.38269
-0.2722168 102.85146 58.586487
-0.30873871 99.984734 55.169495
-3.6592407 99.497765 54.538513
-2.6114655 97.844963 52.584595
-3.6497803 106.91151 63.374573
-0.4065094 95.599815 49.942139
-3.935318 98.007484 52.758179
-4.7558975 111.9195 69.288879
-4.0099335 101.53089 56.952026
-4.9370346 112.04858 69.434204
-5.3136444 108.3195 64.975769
-4.877655 99.592125 54.601013
-5.3725739 98.117348 52.823914
-5.9201202 96.633522 51.037048
-5.1562881 98.944283 53.81604
-4.248642 95.940865 50.283325
-8.1784439 107.09547 63.3526
-8.1443939 109.78941 66.565918
-7.7073212 107.78341 64.211182
-7.6969986 97.352516 51.795959
-7.1623154 95.385155 49.492554
-10.134201 110.33959 67.062378
-9.432663 106.13714 62.11731
-11.591812 112.1208 69.030945
-10.087128 108.30605 64.650085
-9.5962219 102.6731 57.991455
-9.9230042 102.27898 57.485901
-9.2140579 95.319878 49.27887
-13.988556 108.29983 64.196228
-13.048462 107.02311 62.795288
-12.654633 97.918861 52.03656
-11.069557 96.576744 50.599365
-11.988419 96.601173 50.541626
